ply
format ascii 1.0
element vertex 1109
property float x
property float y
property float z
property uchar red
property uchar green
property uchar blue
end_header
304.493284 -207.183484 1.735171 62 48 46 
304.493284 -207.183484 1.735171 62 48 46 
319.354870 -199.496275 0.504241 171 156 157 
319.354870 -199.496275 0.504241 171 156 157 
207.985039 -251.209567 12.211151 11 58 114 
211.933916 -246.553538 12.750540 40 93 142 
302.594967 -200.616388 0.749783 166 155 152 
302.594967 -200.616388 0.749783 166 155 152 
190.209627 -254.132076 26.419890 40 117 168 
209.776291 -244.985342 13.772898 10 14 24 
205.571252 -246.168462 27.070580 0 4 31 
180.226413 -254.713035 34.492065 95 121 177 
329.562470 -183.277479 1.936146 169 155 153 
191.386211 -246.829195 34.892113 11 21 78 
178.644717 -252.930400 33.694984 22 22 89 
183.057295 -249.845299 32.855621 21 26 85 
164.596578 -258.236511 33.925378 4 23 34 
164.596578 -258.236511 33.925378 4 23 34 
337.110730 -175.807892 1.660089 59 48 48 
337.110730 -175.807892 1.660089 59 48 48 
185.873955 -246.016318 34.047996 8 14 50 
179.683212 -246.098677 36.061035 122 129 151 
179.074513 -246.383971 34.240862 0 4 31 
180.247598 -245.379631 33.729203 113 121 146 
176.226555 -246.502825 34.220633 122 126 147 
172.356062 -245.778521 31.833098 8 14 30 
187.534515 -237.936319 33.421432 19 30 100 
163.258379 -246.548015 33.729424 124 132 148 
219.283146 -219.101823 56.667037 118 121 192 
225.013501 -218.130961 0.864472 59 50 50 
198.777871 -229.205452 26.503906 0 5 36 
222.680707 -216.693470 60.075319 111 109 184 
176.112691 -236.826753 32.148571 96 93 144 
220.009150 -184.157062 1.603059 168 158 158 
84.009032 -233.323769 1.366351 117 103 101 
228.225162 -175.914663 2.732575 62 52 52 
98.051525 -226.917603 4.358580 174 163 160 
67.087299 -230.953967 0.871556 155 152 153 
275.001462 -151.035824 7.939026 161 149 149 
109.589014 -212.583062 0.615769 166 156 156 
67.541641 -227.586189 2.928653 27 22 21 
112.538985 -209.608134 3.665789 166 156 156 
74.995577 -223.359118 1.842715 45 35 35 
69.370832 -222.009038 0.971794 161 156 155 
103.063572 -205.498955 1.179895 69 64 63 
108.618785 -197.336250 0.160228 170 159 158 
97.008591 -195.847159 1.175506 66 58 58 
93.788300 -191.868249 2.905536 56 46 46 
119.027634 -178.889618 1.769278 71 64 61 
119.027634 -178.889618 1.769278 71 64 61 
91.947835 -185.368086 0.267191 168 157 154 
85.092894 -180.706617 0.004376 58 50 49 
320.386931 -102.501085 0.124180 56 47 44 
307.852031 -102.564603 9.149322 60 51 48 
318.704577 -88.855597 0.215334 53 46 43 
189.958766 -119.882799 1.564683 47 37 37 
209.974315 -90.661897 2.313351 164 149 150 
209.974315 -90.661897 2.313351 164 149 150 
193.825090 -85.185505 1.640992 153 137 135 
191.436283 -79.402770 2.988113 44 33 30 
191.436283 -79.402770 2.988113 44 33 30 
321.149295 -14.660920 1.631104 152 141 138 
328.107011 -10.926169 2.323249 42 35 32 
314.969509 -11.376523 2.857940 42 35 32 
191.362835 -21.531133 6.368346 40 31 28 
304.574813 -5.363007 0.987441 152 141 138 
302.906044 -2.726924 2.105617 150 139 136 
196.400053 -13.351871 3.974836 151 135 133 
196.400053 -13.351871 3.974836 151 135 133 
203.529255 -5.094170 5.412015 41 34 31 
203.529255 -5.094170 5.412015 41 34 31 
192.518159 -4.995522 7.239480 38 29 28 
336.199211 -369.454201 14.287345 159 146 142 
336.199211 -369.454201 14.287345 159 146 142 
330.771742 -361.149096 15.480906 43 33 30 
321.238564 -367.158650 16.969643 153 145 140 
313.982710 -360.354567 17.561916 44 33 30 
248.110323 -395.544982 22.292334 42 33 30 
248.110323 -395.544982 22.292334 42 33 30 
243.560044 -386.761065 24.580509 155 146 143 
332.184565 -293.264830 13.524205 44 31 27 
232.356086 -373.295799 21.383016 161 153 148 
232.356086 -373.295799 21.383016 161 153 148 
333.709979 -289.019867 14.339476 44 35 32 
333.709979 -289.019867 14.339476 44 35 32 
246.670882 -358.197485 23.914673 47 40 37 
246.670882 -358.197485 23.914673 47 40 37 
328.943725 -289.424478 16.939939 163 149 147 
339.141602 -279.305229 12.994472 158 149 146 
215.230766 -377.909577 17.433501 46 37 34 
209.138324 -377.427869 15.760856 57 42 40 
335.199637 -275.702060 14.208752 41 32 29 
320.660513 -286.028059 14.056209 161 150 147 
328.219591 -272.036034 12.513176 46 37 34 
321.254394 -276.391276 13.251576 50 39 36 
208.781847 -360.751409 14.627932 54 43 40 
204.161359 -356.179161 13.948599 124 113 110 
308.195571 -268.702614 15.608538 51 36 37 
134.416305 -394.163476 16.954855 44 40 36 
134.416305 -394.163476 16.954855 44 40 36 
126.694520 -378.351953 10.808379 53 43 43 
112.486905 -384.491477 13.927856 55 40 36 
112.486905 -384.491477 13.927856 55 40 36 
133.876094 -363.886596 15.432869 54 44 44 
117.319066 -373.535304 14.158073 162 154 149 
99.116502 -385.222396 12.448777 50 43 40 
225.099446 -278.672794 8.761135 178 165 167 
230.457887 -271.772941 10.608215 27 16 18 
335.940954 -203.470498 7.526022 163 153 150 
339.250626 -195.751636 3.964810 55 46 43 
322.122188 -203.467877 3.788850 169 154 155 
322.122188 -203.467877 3.788850 169 154 155 
316.223315 -205.046267 4.762414 167 155 155 
331.849474 -194.035248 4.904773 56 46 43 
315.702795 -201.559402 6.534044 169 158 158 
315.702795 -201.559402 6.534044 169 158 158 
308.715834 -195.704872 6.023576 166 155 152 
321.468338 -188.073752 5.465963 61 50 47 
321.468338 -188.073752 5.465963 61 50 47 
334.820001 -179.507352 6.155840 169 155 153 
262.885834 -215.696607 8.612794 166 154 154 
216.374818 -243.348639 19.296505 10 57 113 
216.374818 -243.348639 19.296505 10 57 113 
219.341303 -239.297397 19.026606 40 94 142 
216.417769 -238.319858 19.278928 11 15 24 
216.569229 -236.100304 16.540192 57 80 104 
226.493778 -228.691972 23.914524 55 61 77 
211.011535 -224.022011 5.339114 29 34 52 
225.377091 -205.760925 4.431520 166 156 158 
211.409759 -188.804682 2.109856 67 59 59 
112.704398 -206.641800 3.908485 166 156 156 
112.704398 -206.641800 3.908485 166 156 156 
112.704398 -206.641800 3.908485 166 156 156 
73.275003 -223.094958 5.999395 157 154 155 
78.217299 -218.558064 5.337747 104 96 96 
77.880433 -216.864196 4.963114 46 36 36 
118.624452 -197.682896 2.516951 59 49 49 
72.897234 -215.315431 4.414714 161 156 155 
105.449216 -199.792606 4.104916 69 64 63 
100.179412 -190.350109 4.162629 66 58 58 
100.179412 -190.350109 4.162629 66 58 58 
85.959589 -189.069289 2.483919 165 155 155 
85.888203 -176.220806 1.380211 57 50 49 
335.286841 -279.661392 2.127546 43 37 32 
310.385628 -304.656706 0.259718 157 150 147 
320.780852 -284.258216 1.180388 43 32 29 
215.347829 -393.336920 4.614422 68 61 58 
215.347829 -393.336920 4.614422 68 61 58 
209.138252 -393.873654 3.244149 162 153 150 
209.138252 -393.873654 3.244149 162 153 150 
249.354999 -334.538004 1.289349 157 146 143 
292.707433 -281.323137 2.526127 46 37 34 
193.302553 -385.124256 0.886114 159 148 145 
221.085928 -348.612981 1.259605 159 149 149 
225.077075 -320.494315 2.766601 52 42 42 
225.077075 -320.494315 2.766601 52 42 42 
213.620678 -313.352399 1.741230 164 154 154 
117.798922 -380.072360 0.205940 44 34 34 
210.889461 -278.771574 14.441910 56 56 64 
80.028438 -377.527524 0.586114 50 43 40 
205.799349 -260.476854 10.546321 0 17 74 
205.823771 -253.785915 10.577685 18 62 114 
206.189169 -248.727251 10.617455 7 2 19 
122.920857 -316.913416 8.201759 52 44 44 
206.380546 -249.480529 25.099413 26 58 92 
189.397025 -265.668785 33.853385 19 25 148 
207.125165 -246.408261 28.340251 2 6 22 
193.913085 -252.835521 28.899931 28 114 168 
224.771455 -219.404581 0.293301 57 49 49 
178.152820 -265.025197 33.048483 45 117 182 
189.404762 -249.253787 33.386617 14 24 84 
178.711017 -256.893559 33.647690 118 130 196 
178.711017 -256.893559 33.647690 118 130 196 
172.379619 -261.822453 34.096298 71 82 92 
173.088135 -260.557533 32.665997 107 118 150 
188.143873 -248.058165 31.966974 129 134 200 
174.651858 -256.508570 31.394004 24 24 92 
182.329034 -249.478475 31.645256 12 12 60 
176.012424 -253.764391 32.851262 13 12 70 
176.012424 -253.764391 32.851262 13 12 70 
182.093191 -247.573415 32.589679 97 96 139 
163.675975 -261.727168 32.540859 0 10 17 
165.569652 -259.927006 31.705658 72 82 109 
162.910369 -261.776267 31.119958 120 133 153 
163.295825 -261.762091 33.337453 54 73 82 
163.295825 -261.762091 33.337453 54 73 82 
162.122741 -261.005451 32.382236 0 12 26 
196.932857 -231.651300 25.132755 0 2 19 
177.591006 -248.322842 31.966651 125 129 154 
177.591006 -248.322842 31.966651 125 129 154 
175.215201 -249.868088 31.724085 2 5 35 
160.791691 -260.469947 32.470932 108 126 139 
160.070529 -260.827780 33.222770 1 10 19 
181.196048 -243.352287 31.761289 126 129 181 
180.830602 -243.296240 30.575605 18 15 91 
174.390717 -248.935081 32.969986 120 127 148 
183.584953 -237.188093 33.089603 120 122 196 
183.584953 -237.188093 33.089603 120 122 196 
154.998473 -258.664349 33.002802 56 66 92 
153.707977 -259.140641 33.521770 140 148 165 
175.324723 -239.467148 30.640506 135 131 203 
163.748695 -248.242194 31.800304 0 6 11 
163.805406 -248.217193 31.925865 0 6 11 
160.855053 -247.693684 31.935225 9 19 30 
153.248252 -252.866643 32.358529 129 138 153 
153.297103 -250.021352 31.607464 130 136 145 
160.017093 -241.793191 31.376823 99 102 103 
160.017093 -241.793191 31.376823 99 102 103 
138.497323 -229.160804 27.066459 166 153 157 
185.662202 -176.006500 0.128867 33 23 23 
116.562510 -220.910467 0.374086 59 51 51 
116.562510 -220.910467 0.374086 59 51 51 
84.628480 -234.788979 2.656122 117 105 107 
110.443161 -212.333934 2.638549 162 154 154 
71.403570 -228.257488 1.112439 95 92 93 
66.360060 -229.816964 3.278390 23 18 17 
107.604528 -199.272822 0.046465 168 158 158 
95.622468 -197.869735 1.047491 67 59 59 
95.622468 -197.869735 1.047491 67 59 59 
110.815796 -187.850771 3.834128 166 156 158 
110.815796 -187.850771 3.834128 166 156 158 
118.049314 -180.652766 1.379552 62 58 54 
85.872925 -194.717078 2.312693 164 156 158 
229.474083 -78.321288 0.254127 60 52 52 
189.289538 -80.281234 0.736723 48 34 32 
189.289538 -80.281234 0.736723 48 34 32 
194.405927 -12.916218 1.375869 150 138 135 
194.405927 -12.916218 1.375869 150 138 135 
186.204998 -13.440634 4.905137 39 30 27 
202.150148 -4.393019 2.652026 43 37 32 
189.090921 -4.459656 3.772152 38 31 28 
332.768779 -281.903784 0.351035 44 35 32 
309.459791 -304.988284 0.087245 161 152 149 
209.537984 -394.074417 2.419921 159 150 147 
249.683891 -335.650189 0.939035 157 146 143 
249.683891 -335.650189 0.939035 157 146 143 
313.978498 -243.861999 4.807618 159 147 147 
226.980477 -302.203239 1.007048 53 43 43 
221.548245 -302.020315 1.978963 164 156 156 
212.103954 -311.709037 1.446370 165 155 155 
210.651484 -286.819923 2.781592 167 159 161 
212.675351 -281.083457 10.088737 65 77 96 
212.126324 -281.663509 12.421904 2 0 3 
207.354024 -288.003918 18.774966 5 7 9 
210.706213 -280.369721 13.378963 66 65 75 
212.568787 -277.795586 13.198094 1 0 7 
210.756885 -280.960822 22.964065 70 72 79 
301.215358 -168.756919 9.119762 56 44 44 
99.763923 -388.502581 0.955819 42 32 32 
99.763923 -388.502581 0.955819 42 32 32 
152.079322 -331.033020 7.854776 159 151 151 
204.367791 -263.264799 8.719758 0 17 76 
205.343157 -253.880522 7.044375 36 90 146 
202.548397 -261.495956 17.846005 2 7 11 
205.252567 -253.853283 13.277922 29 73 115 
206.678030 -249.943043 10.450098 0 4 14 
225.585752 -220.201560 0.220569 57 49 49 
205.553364 -251.726699 23.905178 27 58 87 
193.976275 -264.093991 34.121610 0 5 109 
190.563514 -266.389368 33.833967 32 41 162 
131.015192 -317.398069 6.637518 164 156 158 
189.969305 -263.744482 38.238896 13 34 159 
190.451485 -263.307812 38.579529 13 34 159 
195.505644 -253.262436 29.409219 28 110 168 
126.207407 -317.100035 8.741395 49 44 43 
201.715651 -236.797607 22.726583 83 80 81 
189.406023 -250.927781 32.432988 1 24 84 
187.013195 -250.150754 29.727078 23 40 99 
189.354319 -247.198074 30.019993 51 120 180 
173.557308 -265.222493 36.040397 12 12 11 
181.892169 -251.684031 30.455615 14 13 64 
198.555456 -231.814825 25.654004 0 2 26 
173.928431 -258.996363 33.880196 64 82 102 
175.816304 -255.859328 31.735147 15 20 73 
177.621247 -250.049183 32.508750 3 3 30 
181.990498 -244.052582 30.895217 21 18 82 
177.098168 -250.383493 33.741291 119 118 153 
162.823678 -262.427797 32.056170 0 1 12 
162.823678 -262.427797 32.056170 0 1 12 
181.857732 -236.457889 32.058699 13 13 102 
153.865976 -263.482950 33.151719 5 16 31 
151.990013 -262.387344 31.361171 125 131 147 
151.990013 -262.387344 31.361171 125 131 147 
163.096693 -250.539965 30.264038 3 11 23 
161.971041 -250.384667 32.220128 124 133 151 
161.797581 -248.851619 31.583511 8 19 27 
155.673403 -253.451632 31.331146 60 66 87 
155.673403 -253.451632 31.331146 60 66 87 
159.612499 -246.435570 31.960889 44 54 51 
159.612499 -246.435570 31.960889 44 54 51 
154.995977 -250.678986 31.932364 128 135 141 
154.995977 -250.678986 31.932364 128 135 141 
162.274916 -241.661314 30.378517 17 14 22 
162.274916 -241.661314 30.378517 17 14 22 
156.512678 -241.925700 31.333846 71 72 72 
85.865275 -295.353539 4.734538 47 40 37 
101.164516 -275.882147 13.708655 21 16 17 
139.686838 -238.190032 30.603644 169 159 166 
139.020975 -230.710331 26.006035 165 155 157 
130.032641 -228.149263 8.629808 168 157 161 
118.993544 -221.588232 0.967267 62 52 52 
118.993544 -221.588232 0.967267 62 52 52 
91.354846 -233.834713 0.007056 168 158 160 
11.709008 -302.602688 0.660774 157 149 149 
109.812146 -215.834878 0.476075 158 150 150 
109.812146 -215.834878 0.476075 158 150 150 
109.812146 -215.834878 0.476075 158 150 150 
118.939171 -204.485032 0.872288 55 46 44 
205.075685 -128.423894 0.030762 169 159 159 
79.624183 -239.439694 17.696088 46 36 36 
110.981680 -199.430898 1.389662 167 157 157 
70.762299 -232.949960 2.975037 164 161 162 
70.515254 -229.926759 4.866658 19 14 13 
114.349535 -187.642478 5.384835 166 156 156 
122.937559 -179.717609 4.058790 63 53 53 
122.937559 -179.717609 4.058790 63 53 53 
99.366558 -197.867852 2.675446 67 59 59 
99.366558 -197.867852 2.675446 67 59 59 
95.692911 -190.455998 0.655147 160 152 154 
87.550574 -194.526790 3.050582 162 154 154 
85.321384 -183.667035 0.594738 59 52 49 
85.321384 -183.667035 0.594738 59 52 49 
121.504620 -105.040584 0.155793 61 53 53 
209.460088 -11.330356 0.734283 157 146 143 
191.824596 -20.406398 5.548914 41 32 29 
191.824596 -20.406398 5.548914 41 32 29 
194.308531 -12.079175 1.307328 152 138 136 
194.308531 -12.079175 1.307328 152 138 136 
201.803970 -3.317422 2.077026 47 38 35 
201.803970 -3.317422 2.077026 47 38 35 
188.540244 -3.560342 3.203714 42 33 30 
333.231334 -280.583221 1.348287 44 35 32 
311.085728 -302.466203 2.208785 159 150 147 
298.856808 -286.890737 1.274367 159 149 146 
217.666464 -391.434534 5.307013 39 30 27 
209.882878 -393.430267 2.817348 159 150 147 
209.882878 -393.430267 2.817348 159 150 147 
251.403345 -331.539095 2.688713 157 146 143 
198.012143 -392.484551 0.600757 164 156 153 
194.275227 -385.223938 0.455100 160 149 146 
225.886201 -303.012020 0.111883 53 43 43 
213.931311 -309.871512 3.056729 165 155 155 
197.891396 -321.756310 3.745455 162 152 152 
200.826713 -318.505345 6.381293 164 154 154 
211.795596 -285.644660 3.702589 167 159 161 
215.393865 -274.307911 0.516842 122 115 121 
212.595736 -278.642823 14.944068 65 64 74 
213.986458 -276.456707 14.378127 1 0 7 
102.797116 -391.372029 1.142409 159 149 149 
151.101700 -333.974791 5.899737 159 151 151 
208.031876 -253.663129 11.337268 7 51 111 
205.128489 -259.298332 19.893240 1 5 9 
206.427723 -253.147444 7.974091 29 92 153 
207.135709 -252.250044 14.804322 29 73 116 
207.135709 -252.250044 14.804322 29 73 116 
208.409173 -248.669547 11.790158 0 5 15 
207.570365 -250.058963 25.462580 27 58 87 
129.280905 -320.215334 8.364122 46 38 38 
131.285634 -313.348970 12.067763 50 45 44 
196.627530 -252.183657 30.256492 28 110 168 
192.641233 -249.890224 35.682023 44 104 161 
190.616384 -249.940029 33.251570 2 22 82 
177.891238 -262.016005 38.910963 12 12 12 
203.919628 -232.243120 26.676085 71 72 76 
190.332723 -246.365885 30.720159 50 118 178 
175.474536 -260.567414 33.368570 96 106 132 
186.172886 -248.470816 33.532393 8 7 58 
201.478171 -229.705702 27.822704 0 2 26 
189.124719 -243.053831 32.745397 92 107 175 
172.489108 -258.725662 34.970607 116 140 155 
180.275818 -248.074207 34.337278 8 10 38 
178.625281 -249.213513 34.764166 122 122 156 
167.091545 -259.378952 34.895240 0 1 12 
156.615003 -261.521227 34.920642 8 19 34 
163.787809 -247.427848 32.900685 6 16 24 
177.272235 -234.414131 33.609679 0 2 16 
156.336579 -249.742803 32.776501 128 135 141 
160.977418 -245.401930 32.842131 46 55 53 
165.046872 -239.756522 32.334674 18 17 24 
104.244606 -273.924455 15.625324 21 16 17 
104.244606 -273.924455 15.625324 21 16 17 
161.045048 -220.673252 26.187178 6 62 127 
139.393825 -238.335308 30.345668 168 159 167 
142.859937 -228.405049 28.391604 165 155 157 
122.881114 -219.588299 3.619866 63 53 53 
96.788930 -231.184611 3.331761 168 158 160 
116.913367 -210.907134 5.736080 159 151 151 
107.771714 -206.450509 4.182810 64 56 56 
208.032422 -127.393682 2.309763 169 159 159 
76.927126 -229.960723 6.638147 164 161 162 
76.443328 -228.299806 2.747996 105 102 103 
114.511092 -197.838297 3.654886 167 157 157 
73.984022 -223.776505 3.507119 159 154 153 
104.979657 -195.382356 6.210812 67 59 59 
104.979657 -195.382356 6.210812 67 59 59 
119.288231 -185.551963 8.478335 166 156 156 
119.288231 -185.551963 8.478335 166 156 156 
127.285871 -177.881623 6.861956 63 53 53 
96.687295 -193.692798 4.527702 60 52 54 
96.687295 -193.692798 4.527702 60 52 54 
94.136428 -192.782735 6.674431 163 155 155 
223.917287 -86.300702 0.122391 164 154 154 
89.891452 -181.851954 3.460856 59 52 49 
89.891452 -181.851954 3.460856 59 52 49 
232.092367 -77.705928 2.079505 61 53 53 
15.405972 -218.078332 1.122756 65 58 55 
15.405972 -218.078332 1.122756 65 58 55 
195.000291 -85.580497 1.675074 151 137 135 
5.936564 -206.571070 0.454275 62 58 54 
192.627059 -79.752232 2.991937 48 37 34 
192.627059 -79.752232 2.991937 48 37 34 
189.717314 -74.388814 5.811753 141 130 127 
124.478473 -104.266338 2.028557 61 53 53 
129.050455 -78.003859 1.973545 55 48 45 
61.578493 -99.071642 2.114008 158 150 150 
193.094867 -20.208833 6.373569 41 32 29 
195.916026 -11.904702 2.383878 152 138 136 
195.916026 -11.904702 2.383878 152 138 136 
203.974920 -3.139527 3.703385 47 38 35 
203.974920 -3.139527 3.703385 47 38 35 
310.471061 -302.085557 2.329277 159 148 145 
216.900250 -304.939028 2.007992 48 40 40 
216.900250 -304.939028 2.007992 48 40 40 
209.735987 -289.411432 26.735120 50 46 48 
209.735987 -289.411432 26.735120 50 46 48 
206.632352 -291.112320 25.832624 167 159 161 
208.894837 -287.045601 8.155623 3 1 6 
212.243084 -282.102830 19.098903 69 69 76 
209.139665 -285.172149 16.638713 69 69 76 
209.139665 -285.172149 16.638713 69 69 76 
210.528485 -283.073843 22.045643 74 76 83 
209.204043 -284.232533 10.814408 64 60 70 
101.406684 -390.887205 0.263095 40 30 29 
210.078106 -279.137874 23.646827 0 2 19 
178.985305 -308.512084 26.905890 158 150 150 
200.688064 -269.176464 3.654931 0 19 73 
196.911937 -269.321350 39.368433 139 211 255 
198.948768 -266.842133 13.186264 6 9 11 
206.307921 -257.243082 8.845950 10 55 111 
204.300704 -257.329503 4.735643 38 94 150 
208.288950 -253.326064 8.437921 38 94 150 
189.790955 -268.991186 32.185006 27 31 152 
189.790955 -268.991186 32.185006 27 31 152 
207.942408 -251.492063 24.819710 26 60 91 
205.958051 -252.835229 8.396504 0 5 34 
206.666221 -252.129771 9.141897 0 7 24 
136.298921 -316.303592 9.676927 166 155 160 
140.185658 -312.495057 12.714992 166 155 160 
206.974931 -250.033616 8.301287 1 8 21 
138.726566 -310.872295 13.753429 42 36 37 
144.745016 -304.083250 20.875382 49 44 43 
189.074702 -263.128745 33.338555 5 13 123 
189.838736 -258.469196 30.603288 10 92 149 
206.180295 -243.260273 25.121609 47 45 50 
189.286463 -254.656780 31.813034 33 99 156 
183.882570 -258.635678 22.524059 33 112 166 
174.031359 -267.468405 34.972186 13 15 17 
191.477884 -251.191617 32.868121 4 20 92 
176.991528 -262.538580 29.976960 91 113 176 
171.816870 -266.575770 31.530648 81 92 99 
172.661561 -265.578265 31.171921 0 1 15 
183.222604 -256.008675 33.497895 11 19 98 
183.222604 -256.008675 33.497895 11 19 98 
189.120005 -250.503175 30.188282 10 23 85 
177.784371 -260.780265 32.852454 6 12 59 
174.345719 -261.393959 33.593180 99 119 137 
177.986015 -257.759492 31.943821 24 26 96 
175.808876 -259.606264 34.086580 57 75 95 
185.989573 -250.195448 32.419889 8 9 53 
169.987685 -264.256316 33.175653 66 88 94 
178.737417 -255.587263 32.988999 11 14 71 
168.042883 -263.851828 30.151852 58 75 95 
195.995289 -237.281210 2.550097 38 50 75 
176.632170 -254.903179 31.318240 29 31 72 
169.708254 -260.796156 36.164978 60 81 86 
192.071230 -239.169968 1.667281 21 36 59 
201.571653 -231.524811 27.111818 0 2 23 
160.124904 -268.110924 31.902037 0 3 11 
183.572168 -247.220277 34.707854 105 109 124 
183.572168 -247.220277 34.707854 105 109 124 
164.320811 -263.615482 31.779742 0 5 20 
162.987469 -264.585752 33.744009 48 68 75 
186.912667 -243.180116 31.103710 13 23 98 
132.120211 -290.076313 21.061638 63 116 161 
163.981090 -262.330262 32.652216 105 126 139 
180.076418 -246.686720 32.364076 15 20 38 
132.969021 -287.218465 23.637575 36 34 42 
196.451920 -230.877412 14.548993 3 1 7 
192.733256 -234.027731 15.505676 3 4 6 
179.584769 -246.419422 35.073768 5 12 27 
180.971181 -245.173926 36.204055 5 12 27 
196.809450 -230.382546 19.545532 5 4 6 
157.402824 -265.245345 32.523755 63 75 82 
157.402824 -265.245345 32.523755 63 75 82 
176.288912 -247.895584 29.535801 0 1 28 
151.732479 -267.939643 29.034246 1 7 20 
153.903923 -265.960067 32.090089 10 16 25 
177.989950 -244.890981 32.152018 115 114 147 
176.988286 -245.595276 32.438474 4 8 24 
6.442606 -391.614899 9.097745 167 159 158 
172.135411 -248.157562 35.261684 121 128 148 
184.750271 -237.085220 33.728436 12 16 90 
154.227302 -263.262905 31.662689 122 125 138 
154.227302 -263.262905 31.662689 122 125 138 
173.940534 -245.903979 35.245164 0 6 19 
189.053429 -232.483874 36.671651 17 19 102 
166.529257 -250.252172 31.932595 2 9 26 
166.529257 -250.252172 31.932595 2 9 26 
166.404677 -249.301862 34.249346 115 122 143 
166.647390 -247.258598 34.164493 0 7 16 
148.062184 -262.373479 27.280511 88 91 97 
148.062184 -262.373479 27.280511 88 91 97 
163.250981 -249.292743 37.668726 131 135 143 
179.143644 -234.486560 33.907267 7 7 23 
172.680853 -239.642344 39.026961 9 18 6 
164.528532 -246.055726 33.460504 5 16 5 
155.758377 -252.494978 31.358037 129 134 140 
155.758377 -252.494978 31.358037 129 134 140 
160.932995 -245.927420 30.806985 1 1 1 
163.800991 -242.693640 30.557791 16 13 22 
88.798861 -301.431687 1.789322 163 155 155 
153.539892 -249.130374 31.795198 11 15 17 
139.672728 -256.073122 3.060174 25 96 150 
159.325962 -242.118435 32.235261 97 97 97 
147.160841 -249.508811 7.023702 32 113 170 
233.926016 -175.981876 5.761235 60 50 50 
58.267928 -321.143589 13.612834 159 151 151 
122.786084 -264.070419 20.309745 163 160 167 
89.015034 -288.528847 4.451495 19 9 9 
89.015034 -288.528847 4.451495 19 9 9 
112.742051 -268.144813 14.632648 163 158 158 
99.484527 -275.780782 18.698337 161 153 153 
136.196626 -245.882419 25.847201 21 90 139 
161.907954 -225.500710 30.538075 15 92 151 
158.342622 -226.912139 28.918204 67 147 205 
158.342622 -226.912139 28.918204 67 147 205 
136.424723 -243.611217 26.126660 154 159 178 
164.366906 -220.058794 28.601377 4 61 130 
141.699067 -231.554538 27.080674 165 157 159 
19.777065 -320.669040 1.065787 51 43 43 
19.777065 -320.669040 1.065787 51 43 43 
136.099998 -229.495609 25.628878 162 154 156 
135.920367 -227.047075 11.390007 164 156 158 
39.600758 -298.272460 15.924790 164 156 156 
17.053351 -303.219969 3.058064 163 155 155 
17.053351 -303.219969 3.058064 163 155 155 
9.034630 -308.697847 2.411706 163 155 155 
106.471161 -227.377722 9.524694 167 157 157 
99.990933 -230.593451 10.738636 119 104 105 
4.812597 -297.225054 3.963207 166 158 158 
120.560195 -210.852094 7.216944 159 151 151 
119.856329 -206.610256 0.068418 49 41 41 
75.056412 -234.941533 2.835805 135 132 133 
37.324311 -261.163111 3.940394 164 156 156 
22.671013 -273.002926 21.034239 168 160 160 
89.569154 -224.295002 14.273714 161 158 159 
110.870567 -206.762754 5.857346 55 47 47 
80.980737 -227.036566 4.235126 40 36 35 
75.550056 -230.014395 7.128831 15 12 11 
94.042023 -214.422878 3.383318 164 156 156 
207.342504 -128.945870 1.363481 169 157 157 
103.684288 -198.073843 4.718955 62 54 54 
103.684288 -198.073843 4.718955 62 54 54 
225.327068 -108.067456 2.428277 57 50 48 
103.609970 -188.438312 5.544350 165 157 159 
226.355234 -102.775921 0.933257 163 155 155 
226.355234 -102.775921 0.933257 163 155 155 
191.482878 -122.197215 1.255850 46 35 32 
198.676091 -113.787007 1.348684 156 142 140 
156.625396 -140.945908 8.800121 156 145 142 
225.696815 -91.101949 3.199297 55 45 45 
229.288197 -88.401550 2.338412 162 152 152 
229.288197 -88.401550 2.338412 162 152 152 
226.802550 -85.749345 2.275323 164 152 152 
213.759300 -91.085483 4.672906 161 150 147 
213.759300 -91.085483 4.672906 161 150 147 
213.759300 -91.085483 4.672906 161 150 147 
12.094961 -215.263012 1.095988 56 52 48 
11.337731 -214.644914 3.193612 165 161 157 
11.337731 -214.644914 3.193612 165 161 157 
29.980341 -191.206729 6.602196 60 52 52 
15.656519 -196.980432 2.143650 62 52 52 
33.118333 -174.628458 7.903842 64 57 54 
33.118333 -174.628458 7.903842 64 57 54 
197.620924 -78.497130 6.854349 48 37 34 
197.620924 -78.497130 6.854349 48 37 34 
125.680929 -118.475150 4.399210 60 53 50 
4.735148 -184.281856 5.173102 162 158 154 
131.017864 -102.457998 6.365456 61 54 51 
113.376153 -111.375180 4.331509 160 152 152 
111.976958 -106.547983 1.204280 59 51 51 
111.976958 -106.547983 1.204280 59 51 51 
117.726136 -103.029476 3.522466 61 54 51 
121.446339 -97.391898 1.279053 159 151 151 
121.446339 -97.391898 1.279053 159 151 151 
111.299254 -100.668531 5.351178 159 151 151 
111.716074 -93.366969 2.131611 63 55 55 
111.716074 -93.366969 2.131611 63 55 55 
126.025753 -84.304840 4.122351 158 150 150 
132.552140 -77.071402 4.109074 60 53 50 
235.927800 -20.329301 4.455636 56 48 45 
235.927800 -20.329301 4.455636 56 48 45 
194.705627 -42.137417 10.318050 151 132 131 
105.146590 -82.792572 6.371396 159 151 151 
105.146590 -82.792572 6.371396 159 151 151 
23.537026 -119.043818 3.211905 62 55 52 
79.958164 -94.021728 14.326626 157 149 149 
227.669676 -16.700000 1.896368 50 49 43 
93.631780 -77.843920 1.897152 60 52 52 
4.711813 -118.741446 3.617440 64 57 54 
15.990104 -111.961089 1.881926 158 151 148 
9.086023 -109.116244 3.206534 58 51 48 
23.150420 -101.053502 3.084867 63 55 54 
12.545424 -102.793466 4.829907 159 152 149 
196.728197 -18.987341 9.047778 42 33 30 
20.326065 -96.666410 3.366510 159 152 150 
2.086102 -103.662239 3.963467 59 55 49 
2.086102 -103.662239 3.963467 59 55 49 
204.450108 -9.863304 9.803835 149 138 135 
204.450108 -9.863304 9.803835 149 138 135 
213.184248 -0.924460 11.784798 46 37 34 
213.184248 -0.924460 11.784798 46 37 34 
15.641806 -84.574106 5.061711 159 151 151 
23.532820 -76.228198 3.579270 58 54 50 
198.195507 -1.587452 10.573413 44 34 31 
3.587609 -77.269022 6.823998 60 58 54 
127.325963 -8.141287 1.997917 51 47 43 
117.554970 -6.948556 0.158317 59 52 49 
105.398297 -8.949177 1.956648 56 49 46 
96.245114 -10.770893 1.303388 154 147 146 
96.245114 -10.770893 1.303388 154 147 146 
110.037895 -0.017148 2.958036 51 47 43 
292.208058 -375.498738 1.142839 41 32 27 
292.208058 -375.498738 1.142839 41 32 27 
314.661816 -310.883514 0.100554 160 149 146 
318.697178 -298.816587 3.440308 45 36 33 
313.318258 -305.250693 0.253613 38 29 26 
313.318258 -305.250693 0.253613 38 29 26 
314.565572 -298.291700 6.417724 159 148 145 
216.489565 -399.179297 4.549448 43 36 33 
223.749544 -384.265173 10.739819 42 33 30 
214.009684 -390.143690 5.406249 160 151 148 
214.009684 -390.143690 5.406249 160 151 148 
301.984979 -284.177437 4.721488 159 148 145 
202.899422 -387.711020 6.878547 40 29 26 
251.711177 -332.879386 1.560107 155 146 143 
251.711177 -332.879386 1.560107 155 146 143 
205.455046 -384.449841 6.687978 168 159 156 
205.455046 -384.449841 6.687978 168 159 156 
206.694361 -382.660305 7.906494 171 162 159 
195.818974 -395.409065 3.065867 169 158 155 
294.294043 -280.346886 4.699253 46 35 32 
195.818824 -390.854598 7.496695 136 126 123 
198.507108 -381.488605 3.591336 162 151 148 
192.432532 -377.225212 0.709477 54 45 42 
201.970608 -361.965919 12.681451 130 119 116 
217.590972 -311.610223 3.913710 162 152 152 
217.590972 -311.610223 3.913710 162 152 152 
216.807143 -307.903967 5.212947 164 154 154 
224.104943 -300.552988 4.084190 163 154 154 
218.151017 -302.626826 3.824757 50 42 42 
218.151017 -302.626826 3.824757 50 42 42 
225.289221 -287.414207 1.780736 52 44 44 
328.314875 -185.075024 1.004214 163 152 149 
127.945095 -377.183002 8.565984 47 40 37 
220.135327 -285.079421 4.321135 167 157 157 
220.135327 -285.079421 4.321135 167 157 157 
104.033454 -397.776671 4.404700 44 37 34 
104.033454 -397.776671 4.404700 44 37 34 
214.740460 -283.330409 32.165877 47 42 43 
214.740460 -283.330409 32.165877 47 42 43 
212.762808 -285.524699 3.776087 165 160 161 
212.106088 -285.181680 10.430800 170 165 167 
212.106088 -285.181680 10.430800 170 165 167 
215.280274 -277.969154 22.630389 68 68 75 
100.404185 -388.590905 3.562652 164 154 154 
100.404185 -388.590905 3.562652 164 154 154 
214.821708 -277.359739 16.802041 63 59 69 
216.076428 -275.951744 9.329301 146 157 173 
215.801225 -275.554666 15.711657 0 1 13 
216.291944 -273.880726 1.213720 124 114 121 
214.566846 -273.605271 28.610645 0 1 18 
217.294795 -258.763389 1.166871 132 121 130 
89.450178 -374.527287 4.239251 49 39 39 
89.450178 -374.527287 4.239251 49 39 39 
208.284031 -260.619276 11.558089 0 19 73 
201.568770 -264.165493 37.917261 33 111 180 
197.964592 -267.160777 41.319406 123 198 244 
198.483488 -265.577425 32.418721 135 198 255 
209.821555 -250.867872 10.681200 39 96 154 
190.971284 -266.466257 34.209692 27 31 152 
211.366347 -244.698441 13.230413 4 10 22 
208.806006 -246.902916 29.104147 0 1 26 
190.842805 -262.677716 37.477519 174 181 252 
210.604010 -244.515084 26.281826 18 14 17 
190.703606 -260.302261 35.704748 3 11 116 
319.982391 -145.419891 4.701803 159 147 147 
319.982391 -145.419891 4.701803 159 147 147 
195.709240 -253.037265 28.840972 27 113 167 
193.083584 -254.185048 34.335124 10 92 150 
210.061712 -238.605763 3.673521 25 29 48 
206.692518 -241.560974 26.493608 49 47 52 
228.895668 -218.358708 2.520128 53 45 45 
177.719801 -262.519055 39.081622 13 15 17 
194.129678 -247.600059 36.011886 3 23 95 
187.944686 -251.160894 36.484836 3 18 83 
175.655996 -261.590417 35.666200 67 77 84 
180.256738 -257.112317 35.898152 12 18 66 
187.314690 -251.012144 37.861218 12 19 99 
187.314690 -251.012144 37.861218 12 19 99 
179.482274 -257.544292 36.688272 109 120 148 
190.004599 -246.988633 30.273605 38 116 174 
175.021759 -259.212556 35.232017 89 109 127 
177.605038 -256.531872 36.588163 51 69 89 
177.605038 -256.531872 36.588163 51 69 89 
181.335136 -253.341891 35.693842 24 27 96 
187.539959 -247.613881 34.683989 9 10 54 
177.312356 -255.626983 34.521053 111 126 156 
205.150320 -231.708161 27.826108 49 50 51 
205.150320 -231.708161 27.826108 49 50 51 
187.964428 -245.978269 35.132519 1 1 42 
128.821285 -295.126330 18.010888 22 112 175 
169.235235 -259.757764 35.776035 0 17 25 
180.136859 -250.377343 35.175387 26 28 68 
180.136859 -250.377343 35.175387 26 28 68 
203.018757 -230.962885 27.384036 48 50 57 
202.144397 -230.637159 8.918806 41 51 77 
189.358786 -241.759271 33.143159 1 17 83 
167.693426 -259.048295 35.481055 0 5 20 
184.430093 -244.992796 36.495054 119 123 138 
184.430093 -244.992796 36.495054 119 123 138 
177.722744 -250.496993 34.203664 119 122 153 
179.540642 -248.959488 34.122662 0 0 26 
180.109494 -248.429944 34.592126 0 1 23 
180.109494 -248.429944 34.592126 0 1 23 
164.570189 -261.426073 36.124879 43 65 71 
194.124070 -235.869094 4.505786 20 35 57 
200.968282 -230.697469 27.550895 0 1 25 
189.088146 -239.833435 33.954086 10 22 95 
166.279811 -258.655140 35.534966 96 117 130 
165.582752 -258.826249 36.429236 2 15 25 
178.507175 -247.899761 35.171170 116 121 140 
130.135195 -287.409334 22.734258 42 34 39 
131.525849 -286.141694 23.790601 41 33 38 
181.997266 -244.180852 43.404796 117 127 139 
181.997266 -244.180852 43.404796 117 127 139 
5.290146 -389.375861 3.665234 163 155 155 
5.290146 -389.375861 3.665234 163 155 155 
12.109189 -382.929944 2.628699 165 157 157 
12.109189 -382.929944 2.628699 165 157 157 
160.507027 -260.765590 35.972173 71 85 93 
182.484537 -242.477845 38.467348 0 5 20 
4.199490 -389.142593 0.607298 32 25 22 
179.614614 -243.490832 33.271492 0 2 30 
196.951505 -228.729330 20.622895 5 4 6 
176.187059 -246.249914 34.161488 5 13 26 
210.103369 -216.974884 5.931646 22 13 21 
156.604608 -261.823517 35.263496 10 16 25 
178.342615 -242.985699 33.530950 114 115 146 
177.890943 -243.209195 34.254295 3 7 23 
91.239967 -313.497269 3.324154 162 155 152 
8.681301 -381.100353 1.984404 163 155 155 
8.681301 -381.100353 1.984404 163 155 155 
158.960796 -258.224740 34.792719 60 69 97 
158.763523 -258.086119 29.763980 114 126 138 
172.365328 -245.500133 35.161681 0 6 19 
184.378415 -234.782952 33.984978 16 19 102 
167.765433 -247.505129 34.003351 1 8 25 
146.158129 -262.097776 26.978359 103 108 114 
146.158129 -262.097776 26.978359 103 108 114 
166.835756 -245.367271 35.468511 0 9 19 
179.150324 -232.964502 33.830728 122 125 164 
181.730429 -230.553286 35.038058 10 20 80 
181.730429 -230.553286 35.038058 10 20 80 
172.126791 -238.475878 39.764275 11 20 8 
163.263152 -245.279152 33.726842 1 10 1 
163.111754 -245.213616 34.546324 57 67 62 
88.551505 -303.738543 6.605355 51 43 43 
158.289869 -248.589102 34.404238 128 133 139 
158.289869 -248.589102 34.404238 128 133 139 
160.960666 -240.131497 33.029412 17 16 18 
163.659325 -237.819194 35.357805 11 10 11 
57.866338 -318.626992 14.040367 159 151 151 
187.763169 -214.754158 0.242713 26 20 26 
226.136160 -182.875170 5.454089 164 156 156 
160.169723 -234.987286 29.252800 46 102 137 
234.665596 -174.229329 7.076237 61 51 51 
94.086448 -281.829084 9.049221 26 17 17 
94.086448 -281.829084 9.049221 26 17 17 
175.283873 -218.089143 2.221639 22 36 71 
113.961896 -264.835795 16.526417 163 158 158 
184.492927 -208.640071 1.422856 161 158 158 
102.585234 -270.897408 21.875004 161 153 153 
162.762210 -223.113002 1.017244 10 38 79 
161.589114 -223.953245 31.526586 18 95 154 
137.896748 -240.415973 28.287506 149 159 181 
139.194050 -239.372863 29.343770 153 157 174 
148.944466 -231.394650 31.751648 70 151 206 
142.045825 -229.295010 28.406239 167 157 159 
331.981016 -81.464384 0.615082 51 44 41 
130.027379 -231.825280 22.069498 163 155 157 
135.523254 -225.178366 12.081745 164 156 158 
27.264989 -303.452265 9.467221 165 157 157 
27.264989 -303.452265 9.467221 165 157 157 
194.261099 -178.535491 1.620099 42 34 34 
194.261099 -178.535491 1.620099 42 34 34 
16.955845 -299.700239 3.472318 163 155 155 
16.955845 -299.700239 3.472318 163 155 155 
7.342878 -306.344362 2.231748 163 155 155 
125.924759 -217.520275 5.628722 59 47 47 
9.928906 -298.033467 0.466305 49 41 41 
7.544602 -299.209321 6.400771 38 30 30 
104.365801 -226.274960 8.991093 166 156 156 
1.224077 -295.931380 2.633124 167 159 159 
93.204760 -233.555217 25.897320 105 97 97 
103.218405 -222.449267 3.481180 54 45 45 
119.853760 -208.734708 7.623450 159 151 151 
125.360127 -200.959043 5.164116 49 41 41 
12.273871 -276.296250 15.828338 169 161 161 
86.901015 -223.342059 13.386752 156 153 154 
77.234452 -227.715500 3.431602 101 97 98 
266.724453 -99.372878 0.351157 159 149 149 
82.506986 -223.512228 6.259944 42 38 38 
77.681763 -226.034346 9.315980 18 15 14 
90.764266 -214.090183 1.961396 165 157 157 
117.149477 -196.080085 5.532596 164 154 154 
84.631266 -217.405243 10.558768 164 159 158 
104.728477 -200.052689 9.001075 165 157 159 
104.728477 -200.052689 9.001075 165 157 159 
106.929273 -193.853336 8.091603 62 54 54 
106.929273 -193.853336 8.091603 62 54 54 
205.323309 -128.625404 0.191305 169 157 157 
46.110942 -231.123739 13.649753 162 154 154 
46.110942 -231.123739 13.649753 162 154 154 
100.769499 -187.929307 4.182004 164 156 158 
190.942703 -120.966193 1.636836 46 35 32 
206.923608 -110.060580 0.701075 56 45 42 
206.923608 -110.060580 0.701075 56 45 42 
197.485131 -113.042314 0.881814 156 142 140 
20.149790 -214.987542 3.926009 60 53 50 
20.149790 -214.987542 3.926009 60 53 50 
226.342289 -84.856701 2.561987 164 152 152 
226.342289 -84.856701 2.561987 164 152 152 
8.882999 -213.140568 2.201463 165 161 157 
19.983207 -204.512148 3.519010 168 161 158 
211.687501 -90.867556 3.620553 161 150 147 
211.687501 -90.867556 3.620553 161 150 147 
211.687501 -90.867556 3.620553 161 150 147 
211.687501 -90.867556 3.620553 161 150 147 
232.961245 -77.015333 2.534297 58 48 48 
21.549326 -198.003535 5.682341 160 152 152 
23.855962 -191.748542 3.483473 60 52 52 
1.645687 -202.633506 1.188912 62 57 52 
1.645687 -202.633506 1.188912 62 57 52 
12.820159 -195.876388 0.674005 62 52 52 
1.746774 -193.663075 3.614600 161 157 153 
196.099017 -84.870596 2.636055 150 136 134 
196.099017 -84.870596 2.636055 150 136 134 
30.993365 -173.335451 7.110823 65 58 55 
30.993365 -173.335451 7.110823 65 58 55 
122.881667 -118.087732 3.113391 60 53 50 
122.881667 -118.087732 3.113391 60 53 50 
4.046609 -182.284654 5.059611 161 157 153 
4.046609 -182.284654 5.059611 161 157 153 
194.667068 -78.559346 4.917730 48 37 34 
110.558923 -110.950218 3.042209 160 152 152 
110.655361 -105.655912 1.038576 59 51 51 
110.655361 -105.655912 1.038576 59 51 51 
112.868459 -103.442695 0.632018 61 54 51 
106.636846 -101.001276 2.644878 159 151 151 
108.989725 -93.052097 0.806494 63 55 55 
108.989725 -93.052097 0.806494 63 55 55 
122.570568 -84.302445 2.232116 158 150 150 
127.675950 -77.639830 0.994922 60 53 50 
18.356361 -119.340296 0.209114 62 55 52 
64.437711 -97.449791 4.614326 157 149 149 
3.117696 -117.780868 3.085320 64 57 54 
1.735510 -111.939078 3.235326 164 154 154 
1.735510 -111.939078 3.235326 164 154 154 
13.956496 -104.359911 1.313824 60 53 50 
13.956496 -104.359911 1.313824 60 53 50 
4.395768 -104.022111 0.028145 159 152 149 
194.350064 -19.085330 8.053548 42 33 30 
199.253080 -10.480971 5.839909 150 138 135 
199.253080 -10.480971 5.839909 150 138 135 
13.736707 -84.112255 3.935817 159 151 151 
124.538678 -8.577249 0.434776 52 48 44 
271.744167 -356.423474 4.144313 154 143 140 
223.274924 -386.514290 3.510574 44 37 34 
219.137191 -390.228850 5.984972 42 33 30 
230.883111 -372.850712 5.479351 46 36 33 
230.883111 -372.850712 5.479351 46 36 33 
211.756420 -392.997101 2.977823 161 151 148 
211.756420 -392.997101 2.977823 161 151 148 
200.712981 -390.697281 1.883687 169 160 157 
288.942373 -279.267900 2.948324 43 33 29 
288.942373 -279.267900 2.948324 43 33 29 
188.102600 -384.153041 0.937514 100 89 86 
216.584512 -313.443783 2.609991 161 151 151 
216.584512 -313.443783 2.609991 161 151 151 
212.620331 -313.388957 0.792329 164 154 154 
222.086476 -303.595459 1.780764 163 154 154 
222.086476 -303.595459 1.780764 163 154 154 
118.104267 -389.626773 0.192111 46 39 36 
303.965066 -209.302091 1.463700 54 43 40 
303.965066 -209.302091 1.463700 54 43 40 
335.285597 -178.387088 0.618482 50 41 38 
216.190788 -290.191546 0.063928 165 155 155 
215.456575 -289.263454 1.552355 167 157 157 
211.016041 -288.391506 1.621123 165 160 161 
102.059846 -389.410075 1.094515 38 28 28 
180.047560 -307.226894 28.235197 158 150 150 
307.155306 -184.708615 2.775609 54 45 42 
307.155306 -184.708615 2.775609 54 45 42 
207.325201 -262.650506 10.136951 0 19 73 
197.566541 -267.412151 31.000760 127 191 249 
197.468403 -266.161201 37.301736 2 17 133 
196.427435 -267.318450 32.967021 43 105 183 
202.886841 -262.825304 17.062350 6 9 11 
191.487597 -267.064303 33.884863 27 31 152 
209.529587 -252.074460 16.204942 22 74 113 
209.529587 -252.074460 16.204942 22 74 113 
210.279869 -251.400158 10.558135 38 93 149 
209.447993 -249.919556 26.500154 32 61 88 
183.424112 -271.516559 32.495398 7 35 147 
209.333817 -249.554010 11.763943 0 3 30 
208.611853 -248.367474 10.052354 1 8 21 
184.360299 -263.107924 35.806715 33 114 172 
73.755958 -355.685155 3.599562 158 150 150 
318.460996 -147.229535 3.019069 159 147 147 
176.765930 -261.769407 35.802060 69 77 84 
228.952045 -219.430174 2.256255 53 45 45 
184.617374 -254.359248 35.025102 11 19 98 
192.588421 -247.102096 33.422618 7 20 83 
175.936569 -259.069186 34.589472 55 73 93 
179.836593 -255.705691 33.831827 23 30 92 
172.685958 -261.409183 35.654318 61 83 89 
186.366903 -247.436407 34.421196 77 78 116 
170.052149 -260.252693 35.666816 0 17 25 
170.943417 -259.273074 37.537300 63 84 89 
191.574291 -240.980133 35.751814 115 113 185 
191.574291 -240.980133 35.751814 115 113 185 
192.127344 -240.481515 34.731430 1 16 82 
167.813397 -259.957021 37.824084 54 72 79 
183.582117 -246.790152 35.115117 138 143 157 
183.582117 -246.790152 35.115117 138 143 157 
183.248465 -246.896581 36.371452 0 0 20 
166.410999 -259.721597 34.938659 105 126 139 
202.568705 -231.353543 8.879438 39 50 76 
164.634555 -260.760472 35.027399 6 20 29 
201.940301 -230.928140 27.799979 0 1 22 
179.370906 -248.314414 35.119536 119 123 144 
180.905173 -246.830188 33.856707 0 1 15 
161.917373 -260.773744 36.296629 67 83 89 
183.349166 -243.503288 35.397652 8 13 31 
177.552657 -247.704503 33.853824 0 7 22 
7.181656 -384.936988 0.397230 163 155 155 
158.079536 -261.955369 35.605164 9 15 24 
174.660446 -248.770652 32.212823 3 13 26 
89.320508 -317.116409 1.265658 162 154 154 
198.165451 -229.164659 20.642610 4 4 6 
198.165451 -229.164659 20.642610 4 4 6 
230.355433 -202.141548 69.041569 108 115 182 
230.355433 -202.141548 69.041569 108 115 182 
199.547710 -227.770275 22.281549 4 4 7 
180.266522 -242.558524 34.351580 121 120 153 
159.183858 -258.878588 29.508259 116 128 140 
155.046049 -261.992543 32.704806 125 128 141 
170.127466 -248.436205 32.752146 0 6 21 
187.613993 -233.212370 35.930720 14 18 102 
146.004394 -262.713879 26.448627 23 23 30 
159.795387 -251.429391 35.563464 138 142 151 
86.639082 -307.238631 4.595389 50 42 42 
179.844197 -233.515385 34.906561 5 6 18 
166.491393 -240.406366 34.670637 99 98 100 
166.491393 -240.406366 34.670637 99 98 100 
165.550317 -240.588884 32.409989 15 12 20 
165.550317 -240.588884 32.409989 15 12 20 
155.335124 -247.027801 33.422648 12 16 18 
45.208755 -330.614962 5.320145 159 151 151 
190.483822 -214.086788 2.092093 27 20 27 
327.437995 -109.698517 0.412807 51 42 39 
327.437995 -109.698517 0.412807 51 42 39 
91.163847 -286.023656 6.317853 22 12 12 
226.117976 -184.097617 4.896457 164 156 156 
321.743854 -111.719634 1.755876 163 152 149 
174.932253 -219.722044 1.397344 21 35 71 
184.821471 -209.771680 1.089297 161 158 158 
163.303366 -224.251035 0.805110 8 33 74 
162.056475 -223.587650 32.134488 64 142 200 
329.436529 -95.596799 1.053692 161 150 147 
22.741510 -317.194357 3.334785 49 41 41 
202.433002 -187.136013 0.669108 167 155 155 
202.433002 -187.136013 0.669108 167 155 155 
22.467569 -308.790733 6.210469 166 158 158 
132.778916 -230.952680 23.399555 162 154 156 
133.022491 -228.346276 9.578600 163 155 157 
14.444068 -308.872344 3.649640 162 154 154 
307.235876 -101.151531 1.148370 53 44 41 
195.980427 -178.654084 2.495676 43 35 35 
195.980427 -178.654084 2.495676 43 35 35 
16.927174 -301.856064 3.501632 163 155 155 
17.517753 -301.403769 3.519464 163 155 155 
17.517753 -301.403769 3.519464 163 155 155 
7.556138 -308.209595 2.098926 163 155 155 
120.357678 -227.656036 8.249748 162 152 154 
127.495470 -217.890276 6.219505 59 47 47 
127.495470 -217.890276 6.219505 59 47 47 
309.568288 -90.067902 0.069068 161 150 147 
3.890767 -296.246225 3.913641 165 157 157 
123.775866 -214.275608 6.601576 169 157 157 
123.775866 -214.275608 6.601576 169 157 157 
315.217588 -84.706601 0.365311 160 148 148 
315.217588 -84.706601 0.365311 160 148 148 
316.070585 -83.982152 0.351223 162 150 150 
126.870757 -201.302900 5.766234 49 41 41 
82.635295 -229.167063 8.426447 134 131 132 
83.774286 -225.280684 7.457031 108 103 104 
83.846135 -224.209563 6.712277 41 36 36 
82.552851 -224.321390 6.413045 32 29 28 
79.773452 -226.263073 10.324268 12 9 8 
113.708849 -204.017926 8.238431 55 47 47 
94.902503 -212.864468 4.432497 164 156 156 
269.596890 -98.860100 2.823590 159 149 149 
108.537010 -199.043896 11.117910 165 157 159 
108.537010 -199.043896 11.117910 165 157 159 
122.489169 -184.586250 10.517400 162 152 152 
229.544389 -116.508641 0.199610 60 54 49 
229.544389 -116.508641 0.199610 60 54 49 
129.885655 -177.394620 8.272371 55 45 45 
206.871681 -128.582249 0.972950 169 157 157 
98.602519 -191.491288 9.825517 164 156 156 
98.771154 -188.367215 8.192892 52 44 46 
194.132233 -120.145808 3.810563 46 35 32 
211.110942 -108.684909 3.980753 55 44 41 
219.123951 -101.668134 2.667303 60 51 48 
219.123951 -101.668134 2.667303 60 51 48 
23.516680 -214.312068 5.953441 61 54 51 
225.541824 -90.585470 2.956873 55 45 45 
225.541824 -90.585470 2.956873 55 45 45 
230.302658 -87.340352 3.282607 160 150 150 
229.300366 -84.014675 4.759746 164 152 152 
15.722689 -202.278397 6.289982 59 51 51 
26.714760 -191.296512 5.260022 60 52 52 
10.724145 -199.154710 6.819010 62 57 52 
10.724145 -199.154710 6.819010 62 57 52 
35.155818 -172.101141 9.706181 66 59 56 
35.155818 -172.101141 9.706181 66 59 56 
200.275544 -83.396035 5.789365 150 136 134 
200.275544 -83.396035 5.789365 150 136 134 
9.475627 -180.345455 8.526981 162 158 154 
9.475627 -180.345455 8.526981 162 158 154 
126.892245 -116.785455 5.915049 60 53 50 
199.980589 -76.700423 9.088220 48 37 34 
199.980589 -76.700423 9.088220 48 37 34 
0.835345 -174.665452 8.430853 61 56 55 
116.810105 -108.742885 7.234810 160 152 152 
92.276488 -118.473321 1.092732 61 57 53 
117.540756 -103.169373 5.745170 59 51 51 
120.282370 -100.730994 5.817604 61 54 51 
126.516411 -94.245429 5.465545 159 151 151 
126.516411 -94.245429 5.465545 159 151 151 
115.217145 -97.824919 8.620330 159 151 151 
109.387426 -95.540420 0.869345 61 53 53 
109.379361 -96.002894 8.364176 62 54 53 
108.017028 -95.174418 4.079486 58 50 50 
107.591121 -95.171436 3.565928 57 49 49 
107.591121 -95.171436 3.565928 57 49 49 
116.465685 -90.367866 6.006459 63 55 55 
100.669086 -93.829921 3.544676 162 154 154 
139.143895 -73.667746 9.547299 60 53 50 
32.462960 -114.265683 9.255291 62 55 52 
108.185821 -80.270601 8.983974 159 151 151 
66.577743 -96.302122 6.108649 157 149 149 
239.144504 -18.755342 7.391129 58 49 46 
239.144504 -18.755342 7.391129 58 49 46 
17.161977 -112.722192 11.892804 64 57 54 
22.766029 -108.152191 6.527853 161 154 151 
100.394295 -74.299525 7.053494 60 52 52 
231.511189 -14.761155 5.765727 50 49 43 
231.511189 -14.761155 5.765727 50 49 43 
24.989523 -100.377059 8.506847 59 52 49 
24.989523 -100.377059 8.506847 59 52 49 
31.797554 -96.479298 8.924122 62 55 54 
8.758614 -105.524542 10.583737 164 157 154 
8.758614 -105.524542 10.583737 164 157 154 
1.908531 -108.097675 10.495373 160 155 154 
19.891757 -98.659577 9.793949 159 152 149 
25.299157 -94.924227 9.302040 51 46 42 
30.234235 -91.927317 9.926613 159 152 150 
1.613408 -103.286560 9.758921 159 154 153 
8.769733 -99.619708 8.537714 59 55 50 
8.769733 -99.619708 8.537714 59 55 50 
222.030300 -7.173170 11.864623 157 146 143 
29.146572 -79.018805 13.705378 159 151 151 
208.704688 -7.760300 13.793869 149 138 135 
208.704688 -7.760300 13.793869 149 138 135 
200.993992 -8.190937 17.041828 41 31 31 
12.014589 -73.103005 12.129916 62 58 54 
131.768258 -13.673730 7.942276 54 50 46 
126.765640 -0.168354 11.259847 45 41 37 
22.478881 -3.888536 14.002845 154 147 144 
318.064840 -334.391681 29.986482 33 24 21 
202.178688 -268.466602 4.918547 0 19 73 
192.221394 -272.348535 27.357350 30 106 169 
186.468780 -272.471652 29.170739 28 32 152 
205.017983 -257.070086 11.616773 23 74 113 
204.338046 -258.006993 4.560534 39 97 154 
205.191655 -257.007226 5.333421 38 93 149 
