ply
format ascii 1.0
element vertex 1111
property float x
property float y
property float z
property uchar red
property uchar green
property uchar blue
end_header
233.126129 -175.513356 34.847355 48 34 32 
233.126129 -175.513356 34.847355 48 34 32 
14.159306 -95.830666 0.877484 170 151 145 
219.278950 -173.532591 103.562366 21 13 13 
232.827858 -183.700839 112.449679 186 167 161 
191.489293 -169.878660 6.145801 17 11 14 
188.760648 -174.236781 3.668145 7 1 4 
145.003319 -173.301684 15.123723 30 21 24 
6.151274 -117.768938 0.822168 60 39 33 
119.489812 -170.676687 4.817596 14 8 11 
81.110157 -171.657843 2.917460 13 8 12 
65.335842 -172.537088 50.579352 36 26 28 
58.205192 -173.443349 33.712222 126 119 125 
54.235622 -174.074583 35.279211 9 2 8 
59.265386 -179.003610 12.130754 19 16 23 
66.001446 -176.836457 112.636052 177 159 156 
58.110134 -179.907970 24.418921 128 121 127 
52.697779 -176.682145 52.806519 135 127 135 
52.697779 -176.682145 52.806519 135 127 135 
55.894052 -179.745905 40.292793 26 18 26 
55.894052 -179.745905 40.292793 26 18 26 
61.518787 -178.464850 111.210199 88 78 80 
61.518787 -178.464850 111.210199 88 78 80 
57.688014 -178.700281 98.682157 28 20 28 
59.346382 -184.869278 34.152939 14 6 14 
57.060824 -184.010118 30.955914 126 118 126 
59.975322 -181.605746 104.933048 133 123 136 
59.975322 -181.605746 104.933048 133 123 136 
8.552247 -164.562908 4.969887 173 144 140 
55.688953 -190.121650 40.900838 132 124 132 
58.258175 -189.589873 69.021240 30 21 32 
12.599699 -171.839832 7.151789 44 30 28 
54.090255 -192.629472 34.068074 22 13 24 
60.742991 -200.969218 8.899318 19 13 21 
56.544114 -200.940839 40.738857 27 19 27 
8.492105 -180.183558 5.016689 168 147 141 
13.474826 -188.422277 7.170084 43 28 31 
0.700127 -186.653176 5.815728 52 36 28 
0.579830 -186.592441 5.944029 52 36 28 
1.515521 -199.612043 10.187079 45 28 22 
0.761793 -199.196414 11.122931 49 32 26 
15.799666 -211.063764 2.751231 43 32 29 
1.248652 -205.310773 3.630636 174 149 140 
54.429423 -234.278632 34.182004 24 17 23 
56.207321 -245.027464 33.073313 126 119 125 
56.380794 -255.030597 33.738623 28 22 25 
56.192329 -264.917582 34.392003 127 120 126 
56.192329 -264.917582 34.392003 127 120 126 
59.139633 -263.141678 81.241006 25 21 24 
57.885480 -306.805749 13.614571 125 118 124 
57.885480 -306.805749 13.614571 125 118 124 
59.895868 -295.410082 101.546035 121 117 127 
59.895868 -295.410082 101.546035 121 117 127 
57.253333 -308.236578 23.437880 31 23 25 
58.616578 -314.668211 10.418049 38 23 19 
25.055921 -295.186770 7.770153 165 145 137 
58.398607 -315.095257 33.535492 27 13 11 
56.091967 -315.503116 22.901874 160 150 145 
55.359108 -305.257149 84.062344 23 19 22 
11.249736 -308.290542 2.260005 167 146 140 
11.249736 -308.290542 2.260005 167 146 140 
109.309476 -381.070340 6.105734 165 146 140 
109.309476 -381.070340 6.105734 165 146 140 
124.944291 -393.183261 4.555230 57 40 34 
91.706880 -377.962647 4.676325 57 43 36 
109.472024 -394.845496 4.776151 170 150 142 
321.016172 -9.927412 5.758691 72 59 52 
203.955081 -11.450362 4.779496 174 156 148 
203.955081 -11.450362 4.779496 174 156 148 
114.122267 -6.134066 3.633577 170 153 147 
98.681300 -4.902207 4.659799 57 43 36 
98.681300 -4.902207 4.659799 57 43 36 
109.018988 -10.908071 6.450807 54 40 33 
105.542166 -13.538421 3.595184 167 150 144 
241.945283 -47.066033 9.988787 177 157 149 
90.561057 -14.179865 1.916530 168 151 145 
101.254067 -21.232718 1.139560 56 39 33 
322.278169 -78.606654 3.104632 66 54 47 
320.670418 -86.468597 1.004355 63 51 44 
304.963955 -82.926797 3.019980 177 163 156 
322.172327 -99.189050 0.598049 65 43 40 
322.172327 -99.189050 0.598049 65 43 40 
329.749668 -102.620914 0.948190 188 168 165 
329.749668 -102.620914 0.948190 188 168 165 
120.022165 -47.468548 21.910569 172 149 142 
224.253109 -76.273249 1.189350 70 52 44 
224.253109 -76.273249 1.189350 70 52 44 
322.220005 -106.132536 1.592793 179 159 154 
317.832310 -109.100387 0.148431 182 164 161 
197.875361 -75.979035 2.035683 66 47 41 
197.875361 -75.979035 2.035683 66 47 41 
210.146044 -99.368531 1.869609 69 52 46 
107.275435 -102.421176 10.711496 65 46 40 
98.599001 -100.358239 1.742282 170 149 143 
108.447407 -107.105303 1.969274 178 159 153 
276.314935 -174.398490 4.265493 177 157 151 
13.833200 -77.806284 5.123407 59 40 34 
266.529036 -176.094562 6.925900 175 160 156 
3.559961 -88.567684 4.859800 169 149 141 
14.032340 -96.082413 0.968083 170 151 145 
8.551418 -101.193883 4.476326 60 41 35 
1.321591 -108.929287 4.236137 57 36 30 
1.321591 -108.929287 4.236137 57 36 30 
19.693054 -118.333329 1.696665 59 41 33 
19.693054 -118.333329 1.696665 59 41 33 
6.190544 -118.183286 0.571630 60 39 33 
62.802488 -181.535404 8.937426 19 16 23 
62.802488 -181.535404 8.937426 19 16 23 
63.272770 -181.271333 25.758239 25 18 24 
62.197177 -182.738381 20.758125 129 122 128 
62.197177 -182.738381 20.758125 129 122 128 
61.662681 -182.367258 56.487673 26 20 28 
59.318738 -182.325063 37.779173 26 18 26 
61.258937 -187.018084 27.569105 126 119 125 
11.312371 -166.549383 1.332304 168 144 139 
20.132033 -172.114662 3.103059 30 19 16 
61.454730 -197.485819 28.062650 22 13 24 
61.035487 -197.106550 33.869036 142 134 142 
61.481501 -207.176294 28.419709 128 120 128 
16.733303 -190.785494 4.152717 42 28 31 
61.235068 -228.622155 28.539491 126 118 126 
61.913968 -246.809149 37.529924 25 19 22 
63.124556 -260.066203 28.115730 28 22 25 
62.098284 -269.359303 29.436993 127 120 126 
62.260300 -309.854714 9.567633 125 118 124 
63.506103 -311.286804 27.616826 127 118 122 
62.350273 -311.818798 18.833862 30 22 24 
62.773050 -317.310394 2.347225 156 139 142 
62.818839 -317.532784 6.445098 38 23 19 
10.313177 -281.833501 2.651166 50 37 33 
63.206712 -318.258822 25.823567 40 29 28 
62.308316 -320.085495 17.284319 159 149 144 
4.500811 -288.276377 1.352669 169 150 144 
4.500811 -288.276377 1.352669 169 150 144 
114.985652 -384.857397 0.425900 166 147 141 
113.188174 -396.630091 0.749305 170 150 142 
202.031719 -11.030285 6.064178 174 156 148 
201.265993 -25.887807 4.282817 178 157 151 
105.492634 -13.207988 3.620173 167 150 144 
89.714065 -13.744703 2.572479 168 151 145 
318.021075 -98.565980 2.799342 66 44 41 
318.021075 -98.565980 2.799342 66 44 41 
324.877413 -101.873658 3.507473 185 164 161 
324.877413 -101.873658 3.507473 185 164 161 
311.132900 -100.904611 1.801699 182 160 157 
197.362559 -75.864247 2.557263 65 46 40 
197.362559 -75.864247 2.557263 65 46 40 
315.061034 -108.809192 1.522025 182 164 161 
210.381102 -99.651227 1.613898 70 53 47 
100.206635 -91.641743 3.335480 61 44 38 
98.332538 -100.518178 1.895995 171 150 144 
108.260177 -107.250312 2.029211 175 156 150 
272.789734 -173.783416 6.166615 176 157 151 
12.986990 -95.815888 1.919734 170 151 145 
8.899877 -101.449053 4.152873 61 42 36 
1.758554 -109.251508 3.769013 58 37 31 
6.498958 -118.459290 0.335362 60 39 33 
63.615711 -182.454860 65.588227 134 127 138 
62.881316 -183.145807 55.743118 26 20 28 
66.709055 -182.327476 109.099840 98 88 89 
64.703687 -185.132797 102.909972 133 123 136 
62.001695 -193.267786 46.137684 28 20 28 
61.551612 -197.691699 28.070403 22 13 24 
61.955814 -197.661915 33.268564 141 133 141 
12.704483 -183.174983 0.997386 168 147 141 
61.713090 -207.414691 28.278560 129 121 129 
17.636726 -191.468218 3.264180 43 28 31 
13.657536 -199.680945 0.253461 167 146 138 
13.657536 -199.680945 0.253461 167 146 138 
62.850203 -229.590038 27.269477 127 119 127 
62.850203 -229.590038 27.269477 127 119 127 
63.441429 -240.535276 26.785532 24 17 23 
61.709911 -270.589260 3.592180 69 64 76 
65.331263 -302.139167 6.521544 23 16 22 
64.533741 -318.180096 0.701098 155 138 141 
12.097307 -282.605220 1.373126 50 37 33 
65.304457 -318.736971 4.292635 44 28 26 
65.003787 -321.571078 15.028867 160 150 145 
310.748939 -4.153136 1.530136 177 160 154 
198.232588 -3.810435 3.705274 66 49 43 
205.968892 -11.933088 3.526983 178 157 151 
108.012828 -13.206183 2.123590 173 152 146 
91.954488 -13.784295 1.309917 169 150 144 
8.193384 -9.881075 1.085880 57 40 34 
318.743820 -101.152774 1.643098 73 51 48 
318.743820 -101.152774 1.643098 73 51 48 
280.451412 -177.988331 0.692711 180 159 153 
13.073530 -102.372796 0.589327 62 43 37 
13.073530 -102.372796 0.589327 62 43 37 
67.839875 -184.631832 4.403032 27 20 26 
68.205587 -186.754433 1.586084 20 14 22 
69.181006 -184.606585 82.640252 136 130 138 
69.181006 -184.606585 82.640252 136 130 138 
66.618843 -183.843395 94.602449 27 19 27 
68.404554 -186.611320 101.330826 134 124 139 
68.591774 -201.332273 22.354331 26 18 26 
68.591774 -201.332273 22.354331 26 18 26 
69.629942 -211.724646 21.959171 131 123 131 
5.210707 -190.191171 1.252334 54 37 31 
71.241247 -307.996690 0.785608 23 16 22 
67.187611 -324.189985 39.609653 157 143 141 
201.395372 -4.830140 1.437062 67 50 44 
209.153563 -12.656308 1.247869 178 157 151 
105.457203 -6.164667 0.576337 57 43 36 
317.158448 -98.845445 2.137254 77 55 52 
317.158448 -98.845445 2.137254 77 55 52 
323.049598 -106.606131 3.023943 68 52 46 
7.159445 -89.190368 2.578309 173 150 143 
12.280505 -102.019715 2.148776 62 43 37 
12.280505 -102.019715 2.148776 62 43 37 
5.096507 -109.665031 1.341492 61 42 36 
5.096507 -109.665031 1.341492 61 42 36 
63.206030 -192.175129 10.650338 125 117 128 
12.911311 -182.716871 0.874140 167 146 140 
147.007025 -262.894129 54.999808 127 116 122 
149.807104 -313.844981 60.330898 71 51 45 
145.556712 -337.574248 63.388135 65 47 39 
6.468845 -279.583705 5.187147 51 39 32 
1.813738 -287.284993 2.707178 167 149 143 
16.763495 -314.430645 2.431581 55 36 30 
97.813894 -392.608464 3.131138 169 151 143 
292.938990 -0.751000 5.794008 187 172 168 
304.642284 -3.967395 6.701846 179 159 156 
319.247617 -11.263398 8.190469 71 54 48 
194.702554 -3.195492 6.871095 63 46 40 
299.305288 -17.903939 4.349794 68 50 47 
203.973704 -11.538454 5.834359 178 157 151 
187.942095 -11.311019 0.315749 178 157 151 
113.026093 -4.858609 5.010500 171 152 146 
195.892345 -20.222154 5.610930 66 49 43 
105.675074 -6.017136 5.331039 57 40 34 
108.646240 -12.584331 1.549002 170 151 145 
97.842129 -11.250357 3.166827 63 46 40 
90.349705 -13.058386 2.420256 169 150 144 
90.349705 -13.058386 2.420256 169 150 144 
102.912443 -16.554529 4.833008 67 53 46 
251.951974 -49.683376 5.217964 177 159 151 
10.681785 -5.241632 1.405559 176 156 149 
84.941614 -20.303023 2.318095 58 41 35 
7.453372 -8.882895 1.089617 56 39 33 
320.686829 -81.854396 4.192789 72 57 53 
296.812668 -78.954200 2.929870 70 53 50 
328.281721 -93.451035 1.952026 183 166 160 
322.099202 -103.078207 0.587800 77 55 52 
322.099202 -103.078207 0.587800 77 55 52 
331.230289 -106.888630 0.060354 184 163 160 
331.230289 -106.888630 0.060354 184 163 160 
197.259227 -83.858188 0.430501 174 152 146 
197.262873 -83.898339 0.768301 174 150 145 
116.649297 -105.890821 2.696412 64 47 41 
305.070283 -181.086317 1.244135 75 56 50 
305.070283 -181.086317 1.244135 75 56 50 
266.461094 -182.038287 44.553244 76 61 59 
56.561769 -126.421488 0.594201 175 150 143 
190.240767 -183.505187 5.353757 103 93 95 
71.337600 -187.023731 1.431361 27 19 27 
71.337600 -187.023731 1.431361 27 19 27 
71.228515 -188.380206 13.526041 131 123 131 
71.228515 -188.380206 13.526041 131 123 131 
69.049384 -188.241067 30.341086 27 19 27 
69.049384 -188.241067 30.341086 27 19 27 
72.223412 -193.564704 18.877876 133 124 135 
72.223412 -193.564704 18.877876 133 124 135 
71.961554 -195.939930 0.618516 128 118 131 
70.420383 -198.576229 39.950523 29 22 28 
70.420383 -198.576229 39.950523 29 22 28 
69.375072 -199.073005 30.287317 135 127 135 
73.308532 -204.416696 18.534255 21 16 22 
70.782175 -203.309992 26.275125 134 126 134 
70.782175 -203.309992 26.275125 134 126 134 
70.657324 -209.437368 40.120559 137 128 139 
70.657324 -209.437368 40.120559 137 128 139 
68.656041 -209.602872 31.599895 28 21 27 
74.067271 -217.078752 9.466717 23 16 22 
6.418148 -190.967972 0.314051 55 38 32 
72.168479 -220.868483 39.222924 29 22 28 
70.781526 -221.446915 30.132465 136 128 136 
77.647783 -227.847595 15.382728 24 17 23 
74.379988 -227.728128 8.924535 129 121 129 
74.398115 -237.129235 17.895941 129 122 128 
74.398115 -237.129235 17.895941 129 122 128 
73.946034 -238.134676 8.801860 25 18 24 
73.260113 -254.636079 28.676242 27 20 26 
74.298235 -257.799707 18.135585 126 121 127 
77.830318 -269.918581 15.931032 26 19 25 
77.058071 -300.813242 7.240731 28 22 25 
75.792018 -297.690076 38.405508 133 126 132 
80.797057 -297.504550 104.234689 159 143 141 
74.796122 -309.026797 28.639130 132 125 131 
76.686271 -328.101829 14.472530 38 22 20 
77.459618 -331.563322 30.561387 160 141 139 
327.812288 -11.017582 2.225516 71 54 48 
318.865943 -13.539889 0.189037 174 160 153 
200.052939 -3.706164 2.869265 63 46 40 
207.644279 -11.798547 2.689207 178 157 151 
207.644279 -11.798547 2.689207 178 157 151 
4.381016 -5.964195 1.007641 172 152 144 
320.334421 -100.189841 1.077619 77 55 52 
320.334421 -100.189841 1.077619 77 55 52 
103.521482 -81.908793 1.330200 64 47 41 
103.521482 -81.908793 1.330200 64 47 41 
119.989917 -105.269521 0.152406 65 47 41 
275.157912 -175.580124 4.031101 180 160 152 
67.684625 -183.749679 4.271839 28 20 28 
67.039154 -184.892862 16.749544 130 122 130 
67.039154 -184.892862 16.749544 130 122 130 
66.645362 -195.166979 42.336709 29 22 28 
68.488898 -200.454293 22.086930 21 16 22 
68.488898 -200.454293 22.086930 21 16 22 
66.108334 -199.483268 29.538199 134 126 134 
66.108334 -199.483268 29.538199 134 126 134 
67.714776 -210.181883 23.029505 128 120 128 
67.714776 -210.181883 23.029505 128 120 128 
67.174290 -249.793633 32.912180 27 20 26 
67.152193 -252.345855 23.448361 127 122 128 
68.648385 -305.089048 2.649927 24 18 21 
68.648385 -305.089048 2.649927 24 18 21 
67.500936 -301.586483 27.126615 23 17 20 
68.997947 -305.205191 12.672180 132 121 125 
67.004473 -315.356410 13.923482 33 25 27 
67.826481 -321.507700 0.818241 33 18 14 
67.538191 -321.397579 21.335647 35 19 17 
68.011619 -324.216707 11.819614 170 149 143 
68.213350 -322.132445 25.045966 20 6 6 
320.841403 -97.987252 0.073498 74 52 49 
320.841403 -97.987252 0.073498 74 52 49 
17.040309 -101.286662 2.939099 59 44 37 
62.124030 -175.181228 2.204845 53 47 55 
62.007566 -175.161445 2.233503 53 47 55 
56.750536 -297.803191 11.843806 25 18 21 
56.750536 -297.803191 11.843806 25 18 21 
56.230580 -297.528559 22.359187 132 121 125 
3.893532 -278.698402 5.994989 53 38 34 
55.234115 -309.825421 15.801867 134 121 127 
55.549955 -313.965668 10.270998 35 20 16 
55.105322 -313.732303 30.496506 36 20 18 
55.598284 -316.479176 21.233904 170 149 143 
100.719876 -376.684042 8.981724 169 152 146 
113.001688 -385.879141 9.695858 61 44 38 
94.988061 -379.764232 7.121158 56 38 35 
94.988061 -379.764232 7.121158 56 38 35 
107.730159 -388.600175 8.237713 54 37 31 
91.378327 -389.293923 7.289680 175 156 150 
7.356160 -280.823766 2.913742 53 38 34 
59.801302 -316.260917 23.321091 142 127 125 
104.307146 -378.813659 6.366853 168 151 145 
93.958025 -390.643417 5.460777 174 155 149 
313.747847 -3.492897 0.351915 181 162 156 
199.431234 -3.608661 3.298073 60 46 39 
112.413471 -6.690058 0.053241 55 37 34 
112.413471 -6.690058 0.053241 55 37 34 
208.796679 -11.605065 1.990743 176 158 151 
184.234719 -11.280027 2.304448 177 157 149 
110.737898 -13.181212 0.109438 171 150 144 
108.265463 -17.164514 0.640061 121 104 98 
140.898349 -49.372565 9.077114 174 154 146 
140.898349 -49.372565 9.077114 174 154 146 
308.677768 -84.418975 0.641266 177 163 156 
317.965186 -99.800680 2.395746 74 52 49 
317.965186 -99.800680 2.395746 74 52 49 
327.839921 -103.617768 1.492806 179 157 154 
327.839921 -103.617768 1.492806 179 157 154 
327.965529 -107.378521 0.766337 72 53 50 
18.823464 -78.372896 0.121723 59 43 35 
18.823464 -78.372896 0.121723 59 43 35 
142.430708 -97.652523 12.076322 178 155 148 
118.508848 -105.012662 1.281660 66 49 43 
16.442112 -102.009783 2.792942 61 44 38 
300.207257 -176.150987 4.229996 75 56 50 
273.753357 -175.206192 4.569133 180 159 153 
269.809464 -179.442218 106.724772 21 18 19 
185.682597 -179.252181 8.447150 101 91 93 
69.255713 -180.636361 13.375423 134 127 133 
65.658104 -183.083652 5.992925 27 19 27 
65.658104 -183.083652 5.992925 27 19 27 
70.362694 -176.285808 73.554394 125 113 119 
63.827476 -179.948635 50.956933 23 14 22 
64.475203 -184.570724 33.428100 26 20 28 
69.484031 -184.318522 61.502148 141 131 140 
69.484031 -184.318522 61.502148 141 131 140 
66.687726 -189.417549 23.064190 133 124 135 
66.687726 -189.417549 23.064190 133 124 135 
65.866602 -191.562719 15.506258 24 16 24 
64.871446 -183.068710 75.179679 26 21 27 
64.871446 -183.068710 75.179679 26 21 27 
72.734463 -180.755973 110.053562 179 162 156 
64.238378 -182.491358 95.780153 29 21 29 
68.573307 -182.421112 107.197998 145 132 140 
66.555455 -185.330081 102.107939 132 127 141 
66.097942 -194.855960 42.921327 29 23 26 
64.498714 -199.046444 25.331254 22 16 24 
66.422713 -201.825312 15.449883 128 121 132 
65.249869 -193.381190 74.929543 138 131 140 
65.495767 -193.087982 95.040822 132 129 136 
65.495767 -193.087982 95.040822 132 129 136 
66.181004 -209.495648 24.284498 128 120 128 
73.672764 -202.365468 109.608079 186 165 159 
65.185520 -215.907611 44.181732 26 21 25 
65.764917 -220.818945 24.735478 25 18 24 
145.350990 -252.701795 5.627689 26 22 25 
63.886295 -227.095658 35.333198 24 19 25 
64.267174 -238.143904 35.143746 135 130 136 
66.412404 -253.175864 14.569117 24 17 23 
65.909005 -249.157274 34.009020 28 21 27 
65.893168 -251.713217 24.569013 128 122 130 
65.893168 -251.713217 24.569013 128 122 130 
67.452303 -260.877032 6.422130 19 13 21 
66.855126 -262.415356 24.402276 27 20 26 
66.855126 -262.415356 24.402276 27 20 26 
67.687519 -270.931312 33.614199 25 20 26 
68.169638 -294.311291 14.061928 27 18 22 
66.945968 -293.459993 25.012251 127 121 124 
67.001786 -291.874010 34.779382 29 20 26 
67.821987 -304.636238 3.324563 25 16 20 
66.704876 -304.081029 14.586237 130 122 126 
66.704876 -304.081029 14.586237 130 122 126 
66.709667 -303.962532 24.667810 29 23 26 
66.709667 -303.962532 24.667810 29 23 26 
65.196516 -302.117020 35.713976 131 124 130 
66.893477 -316.968626 6.764221 135 124 131 
66.970513 -315.372766 13.977159 31 23 25 
67.159106 -314.049446 24.017550 131 122 126 
67.159106 -314.049446 24.017550 131 122 126 
65.099816 -299.866224 77.319882 126 120 128 
65.099816 -299.866224 77.319882 126 120 128 
68.663984 -324.609100 11.204419 169 150 144 
66.306343 -320.671394 22.457566 43 29 22 
100.300886 -320.771081 110.773695 92 71 65 
68.237674 -316.978111 80.978599 128 121 127 
81.012825 -317.049880 111.751203 171 150 144 
68.402144 -316.302601 111.610372 48 36 38 
333.190235 -45.317192 9.096102 182 164 156 
140.724496 -49.416823 8.436918 174 154 146 
300.378618 -93.224342 0.834955 193 171 168 
318.072415 -96.595155 1.587729 74 52 49 
318.072415 -96.595155 1.587729 74 52 49 
305.052337 -96.176988 0.265148 71 49 46 
305.052337 -96.176988 0.265148 71 49 46 
326.610139 -100.030856 1.438006 181 159 156 
326.610139 -100.030856 1.438006 181 159 156 
324.147223 -105.895397 5.225183 71 57 53 
117.786225 -103.335295 1.664394 66 49 43 
267.720376 -170.052590 7.700314 180 159 153 
62.234552 -174.482356 2.103426 49 43 50 
61.953303 -181.555129 5.827053 24 16 24 
60.913022 -179.430580 86.036225 137 130 141 
64.519484 -176.115345 112.871093 179 162 156 
55.304142 -177.596318 99.635008 29 22 28 
58.908845 -194.964366 28.878787 23 16 24 
58.503376 -204.383054 29.555890 128 120 128 
11.795418 -197.472379 1.064121 170 148 145 
11.795418 -197.472379 1.064121 170 148 145 
2.693180 -206.026666 0.861803 173 149 144 
15.665379 -210.974789 1.598226 46 36 31 
10.117587 -221.073619 4.315569 168 145 136 
55.107374 -296.027993 12.774201 25 16 20 
3.221553 -277.515599 6.389967 51 40 34 
53.713677 -295.319119 23.877979 130 121 125 
197.231566 -358.766755 35.676483 62 42 39 
5.012038 -302.917266 1.455276 168 150 142 
54.442259 -294.893803 120.379750 69 48 42 
50.602442 -307.620287 91.258826 57 48 54 
108.724894 -382.138354 12.337783 59 45 38 
104.609239 -385.613964 9.951550 55 38 32 
83.026565 -389.557225 5.579948 59 43 38 
80.006123 -398.683692 10.744165 169 151 143 
80.006123 -398.683692 10.744165 169 151 143 
339.629018 -46.784228 5.607469 182 164 156 
138.939066 -50.042785 8.945652 173 153 145 
8.806044 -282.223080 1.326375 51 40 34 
6.266646 -305.883017 0.497660 168 150 142 
182.122040 -11.457791 3.489868 174 153 147 
348.068958 -43.717762 0.720764 182 164 156 
146.698144 -49.174535 4.576012 173 153 145 
315.463340 -94.901188 2.461821 74 53 52 
315.463340 -94.901188 2.461821 74 53 52 
103.587016 -93.702888 0.577737 66 47 41 
118.845484 -114.820020 0.849352 64 46 40 
51.220889 -121.941194 3.882196 173 150 143 
297.558071 -170.016773 4.944259 75 56 50 
265.070776 -168.326642 8.871609 180 159 153 
277.093191 -171.146689 35.733330 183 163 155 
223.967628 -170.169459 1.323290 21 13 15 
246.275946 -172.438532 16.903204 63 44 43 
244.632969 -171.715199 28.107329 129 112 112 
254.761323 -171.364739 55.895962 70 54 52 
246.294134 -171.367472 47.812590 126 111 107 
240.556920 -172.114458 45.434354 58 46 46 
258.186960 -171.481302 88.859130 62 58 61 
249.983962 -172.261378 98.312462 56 47 51 
250.285933 -171.853097 102.721393 113 108 109 
224.022378 -171.234431 79.582560 60 50 52 
260.981908 -175.247762 113.660398 54 38 41 
182.396598 -174.502569 9.940123 113 103 105 
249.400226 -177.230225 112.619349 183 169 167 
249.400226 -177.230225 112.619349 183 169 167 
253.486288 -181.921577 110.864073 184 168 165 
253.486288 -181.921577 110.864073 184 168 165 
259.717906 -192.673831 113.428597 184 165 163 
80.424299 -172.483128 10.366734 92 84 88 
127.017188 -173.160435 99.850077 125 115 115 
63.041036 -175.007820 4.142538 134 128 136 
65.406239 -177.255573 15.407217 134 127 133 
62.454529 -175.010650 29.653653 131 121 128 
61.565199 -179.596570 8.275368 27 19 28 
67.490356 -173.029591 70.863527 41 27 33 
61.284589 -179.100430 26.397234 28 20 28 
61.284589 -179.100430 26.397234 28 20 28 
18.396937 -174.125056 0.046382 49 36 29 
61.063319 -180.816662 20.365213 132 124 132 
61.063319 -180.816662 20.365213 132 124 132 
59.455792 -177.339886 59.400772 26 19 27 
58.529776 -180.717531 36.577421 25 20 26 
58.529776 -180.717531 36.577421 25 20 26 
1.436139 -174.313627 0.556216 55 37 34 
72.160047 -174.401264 109.207765 44 32 32 
104.592854 -181.141319 110.529790 185 165 157 
87.060234 -177.940776 109.801106 186 164 161 
62.268971 -188.319545 7.262508 128 122 130 
62.268971 -188.319545 7.262508 128 122 130 
60.392365 -184.587093 32.503992 19 12 18 
60.392365 -184.587093 32.503992 19 12 18 
95.392473 -181.584135 110.202018 71 50 44 
57.426774 -173.236838 112.675680 146 134 141 
61.198676 -187.911130 18.084482 26 18 26 
69.795939 -178.026555 109.556818 182 164 161 
57.246630 -189.693049 58.227849 140 133 139 
57.246630 -189.693049 58.227849 140 133 139 
59.957743 -195.345087 27.525282 24 16 24 
59.957743 -195.345087 27.525282 24 16 24 
16.979713 -190.186496 1.849401 45 31 29 
2.963119 -188.326200 2.884875 58 38 35 
57.179733 -189.389146 88.430829 29 22 28 
57.179733 -189.389146 88.430829 29 22 28 
57.339062 -201.420507 38.173972 27 20 25 
57.339062 -201.420507 38.173972 27 20 25 
60.040809 -205.199467 27.669433 130 123 129 
245.865518 -239.647099 117.207618 185 164 158 
245.865518 -239.647099 117.207618 185 164 158 
59.769344 -199.629551 110.960098 141 125 132 
56.140023 -211.863700 39.254212 137 129 137 
56.140023 -211.863700 39.254212 137 129 137 
58.816165 -216.075830 28.542486 27 20 26 
2.701754 -206.483672 0.035420 174 150 145 
19.789780 -215.485667 0.867791 36 27 27 
144.507909 -252.074954 5.797996 137 129 137 
56.642428 -222.464746 39.065441 27 20 26 
52.373797 -223.971961 33.238181 133 125 133 
52.373797 -223.971961 33.238181 133 125 133 
11.998804 -222.590457 1.451877 170 148 141 
244.831922 -269.771199 118.623451 66 45 39 
54.227995 -232.281008 40.962431 135 129 137 
255.644534 -276.469873 117.471307 183 163 160 
57.517125 -232.487262 48.512514 27 20 26 
55.609436 -243.085833 9.006679 128 121 132 
249.440626 -283.161643 116.217200 183 163 156 
57.884274 -247.750946 19.632838 24 17 23 
57.188745 -246.219865 29.510580 131 123 131 
57.188745 -246.219865 29.510580 131 123 131 
250.729261 -287.752363 120.948337 181 166 162 
56.782842 -242.670429 49.280665 134 129 135 
58.337345 -257.944701 9.099100 21 16 22 
66.781730 -240.390026 112.970361 185 164 158 
243.959849 -296.067083 118.558551 68 48 40 
59.074838 -258.052801 19.093968 132 125 131 
59.074838 -258.052801 19.093968 132 125 131 
57.719968 -254.654091 38.815874 136 130 133 
54.202467 -255.170685 32.445292 25 21 24 
54.202467 -255.170685 32.445292 25 21 24 
59.456635 -268.471802 9.233400 135 127 135 
58.696466 -278.014747 9.932677 24 17 21 
58.696466 -278.014747 9.932677 24 17 21 
57.299423 -274.492210 49.801164 26 22 25 
57.299423 -274.492210 49.801164 26 22 25 
57.326260 -287.740091 10.772465 126 119 123 
55.649844 -286.707407 31.718572 129 123 126 
55.649844 -286.707407 31.718572 129 123 126 
55.176519 -284.964266 41.617764 27 21 24 
55.176519 -284.964266 41.617764 27 21 24 
58.069571 -268.949831 118.691092 63 43 35 
54.808508 -284.182152 51.539568 134 127 133 
54.808508 -284.182152 51.539568 134 127 133 
52.848756 -271.157589 103.320306 132 125 133 
52.848756 -271.157589 103.320306 132 125 133 
56.128200 -297.504644 10.656938 26 17 21 
56.128200 -297.504644 10.656938 26 17 21 
56.128200 -297.504644 10.656938 26 17 21 
56.395324 -297.704007 20.678262 129 123 126 
56.395324 -297.704007 20.678262 129 123 126 
53.988072 -296.525670 32.483712 30 23 29 
142.288888 -310.565815 116.650562 172 154 151 
52.821738 -294.881861 42.932078 134 128 131 
52.821738 -294.881861 42.932078 134 128 131 
54.611365 -295.101859 51.283301 28 21 27 
54.611365 -295.101859 51.283301 28 21 27 
0.065467 -286.903669 1.773618 171 150 144 
0.065467 -286.903669 1.773618 171 150 144 
131.861731 -310.374728 117.930723 174 152 149 
57.833063 -283.309596 115.182143 106 93 97 
55.503937 -308.505292 20.919844 33 24 28 
56.579273 -311.648348 13.350285 136 122 129 
55.673192 -314.350259 13.842083 36 24 26 
50.229081 -305.416828 44.048596 27 20 25 
50.229081 -305.416828 44.048596 27 20 25 
108.111550 -310.041840 118.053273 187 166 160 
108.111550 -310.041840 118.053273 187 166 160 
51.284921 -303.938097 53.072594 132 123 127 
51.284921 -303.938097 53.072594 132 123 127 
92.911939 -305.149114 116.043807 70 49 43 
53.379576 -310.086078 34.926631 130 124 126 
50.579383 -304.898568 63.686215 25 21 24 
80.739334 -307.133607 116.712573 177 156 150 
6.018015 -306.106065 3.478716 169 151 143 
6.018015 -306.106065 3.478716 169 151 143 
50.828331 -311.997515 51.921981 39 28 32 
50.828331 -311.997515 51.921981 39 28 32 
52.041449 -304.953866 83.241930 25 22 23 
53.126834 -307.698561 75.263913 127 120 126 
57.818118 -298.890003 117.757537 59 39 36 
53.734930 -303.904582 92.634731 124 118 126 
51.685137 -313.393491 53.966108 167 151 149 
60.856637 -300.033944 118.636783 180 161 155 
50.963916 -310.514278 70.468566 45 32 36 
83.878664 -311.913177 118.246789 96 75 69 
6.881082 -309.901141 7.890491 56 39 33 
52.196010 -310.288480 89.450844 52 41 45 
58.482326 -307.034898 118.998709 175 154 148 
58.482326 -307.034898 118.998709 175 154 148 
66.211425 -331.536350 63.628790 173 153 145 
106.794499 -369.633726 10.762527 59 42 36 
106.794499 -369.633726 10.762527 59 42 36 
95.082045 -373.462160 11.206215 170 152 144 
82.157802 -373.224223 6.563564 57 43 36 
82.157802 -373.224223 6.563564 57 43 36 
103.196172 -386.265311 9.663294 61 44 38 
109.926705 -390.826680 7.913053 186 168 165 
96.456533 -387.520671 8.912009 169 150 144 
90.103309 -385.034347 7.851023 170 151 145 
111.131096 -396.168030 5.208583 169 152 146 
90.130208 -389.186702 6.094161 174 156 148 
90.130208 -389.186702 6.094161 174 156 148 
92.337920 -391.010155 7.914761 55 36 30 
92.337920 -391.010155 7.914761 55 36 30 
90.321439 -389.711956 9.403769 55 36 30 
93.416720 -395.732630 5.476905 62 43 37 
85.184773 -392.821030 2.314769 60 43 37 
4.034918 -374.365763 5.050220 53 41 34 
141.550750 -49.131176 7.840099 173 153 145 
268.661468 -168.250235 6.980828 180 159 153 
60.963111 -184.981468 26.349331 134 125 136 
18.050957 -190.159687 1.017831 45 31 29 
59.627354 -194.485991 33.227209 135 127 135 
15.474224 -210.938571 1.169741 49 36 32 
56.634662 -256.779622 10.727564 21 16 22 
56.952771 -266.860731 11.577654 136 128 136 
2.229513 -277.938843 5.995064 50 41 33 
53.733556 -296.039824 12.917737 26 17 21 
53.733556 -296.039824 12.917737 26 17 21 
53.733556 -296.039824 12.917737 26 17 21 
5.827854 -286.753095 7.942276 54 39 35 
52.023472 -304.641456 14.575433 129 120 125 
52.023472 -304.641456 14.575433 129 120 125 
52.793500 -277.999801 110.554085 125 123 128 
6.390150 -293.152886 4.628919 168 149 143 
50.871317 -292.001914 74.497296 25 21 24 
53.129723 -312.503241 7.322584 171 154 153 
52.456027 -312.260508 11.197685 41 22 21 
52.098793 -314.597431 22.229159 169 148 145 
92.902851 -372.415657 13.378501 171 153 145 
104.340250 -381.294972 14.580353 60 43 37 
84.504223 -373.958559 13.601452 55 38 32 
84.504223 -373.958559 13.601452 55 38 32 
82.590268 -384.361850 12.417934 174 156 148 
142.882413 -49.307831 6.749370 173 153 145 
19.656580 -101.728031 0.462006 61 44 38 
253.688789 -306.334054 120.130628 64 48 45 
253.688789 -306.334054 120.130628 64 48 45 
60.113777 -262.642318 113.528073 111 99 99 
59.015545 -298.893549 8.958408 26 17 21 
57.727728 -315.310138 12.810831 33 21 23 
54.579497 -313.886606 49.661846 38 27 31 
99.504884 -376.219829 8.707191 171 152 144 
83.981243 -391.752326 4.199088 60 43 37 
143.996808 -48.763807 6.073281 173 153 145 
346.437506 -44.324534 1.710535 179 161 153 
47.872817 -120.825342 6.025050 174 151 144 
63.146376 -180.044505 7.168172 28 19 30 
18.734303 -190.872811 0.332293 42 31 28 
58.379471 -204.859066 35.130212 26 21 27 
5.354463 -280.367413 3.153896 52 40 33 
57.460528 -298.741759 10.200915 23 16 22 
57.460528 -298.741759 10.200915 23 16 22 
57.742240 -298.881181 20.094069 129 123 125 
3.005685 -290.751703 4.207980 55 35 32 
57.351831 -308.203199 10.535246 130 123 126 
54.418479 -310.219136 3.473730 79 79 86 
2.923023 -304.204026 2.374591 170 152 144 
53.396727 -313.837627 50.707577 44 35 37 
91.321255 -385.339592 13.535236 169 151 141 
88.122480 -393.383639 10.213185 55 40 36 
345.164881 -93.260944 12.373986 182 164 156 
320.289222 -100.326970 0.270818 76 54 51 
320.289222 -100.326970 0.270818 76 54 51 
62.446609 -196.719704 26.181159 27 20 26 
59.161690 -219.735849 40.412029 22 17 23 
6.413115 -280.485588 2.822003 52 40 33 
59.404000 -309.023593 9.420101 130 124 127 
59.404000 -309.023593 9.420101 130 124 127 
58.807834 -312.434735 12.164833 130 121 125 
58.829684 -313.262169 12.933324 131 122 126 
59.280320 -316.392485 11.513377 30 16 19 
101.221980 -377.262526 7.947970 171 152 144 
91.166758 -389.506816 6.758086 172 154 146 
203.691992 -3.252868 0.946039 62 45 39 
344.005617 -48.112458 5.061353 179 161 153 
16.575989 -102.088128 2.457189 60 43 37 
13.658062 -19.268111 2.376834 49 36 32 
116.798530 -6.411787 2.309991 169 150 144 
110.990044 -7.622923 1.494743 51 30 29 
91.929382 -14.616793 1.721885 173 152 146 
91.929382 -14.616793 1.721885 173 152 146 
86.308718 -21.331255 0.951420 54 37 31 
98.963140 -21.189105 0.044153 53 39 32 
119.644407 -19.684188 2.212683 52 38 36 
140.192751 -49.400735 8.491606 172 152 144 
140.192751 -49.400735 8.491606 172 152 144 
104.446680 -95.584684 0.085138 62 48 41 
45.882393 -121.900437 7.374450 174 151 144 
251.150887 -176.575780 104.226173 35 23 24 
83.379225 -173.409176 0.015677 15 9 12 
67.102939 -176.451236 2.768280 129 123 131 
74.568137 -179.937220 8.944598 134 127 133 
68.537681 -181.814183 3.517364 26 18 26 
68.537681 -181.814183 3.517364 26 18 26 
268.785014 -191.362724 110.710564 187 165 162 
69.975878 -181.548144 20.704074 28 20 28 
268.185277 -193.498248 105.793949 71 51 48 
63.655943 -182.362807 33.709155 25 20 26 
62.095361 -185.618388 32.001990 20 12 20 
62.095361 -185.618388 32.001990 20 12 20 
71.097222 -188.366609 19.655116 134 125 136 
71.097222 -188.366609 19.655116 134 125 136 
69.744227 -190.617939 12.431417 26 19 26 
69.744227 -190.617939 12.431417 26 19 26 
70.364344 -190.587014 21.537484 135 126 137 
66.975642 -193.114904 30.888751 135 129 137 
70.431846 -192.887733 60.609288 28 21 27 
70.987116 -201.091508 1.761910 26 19 25 
69.826027 -198.033009 26.868542 138 132 140 
69.826027 -198.033009 26.868542 138 132 140 
65.854695 -202.854427 23.105124 22 15 21 
72.716967 -209.038031 19.108177 133 126 132 
72.716967 -209.038031 19.108177 133 126 132 
63.525004 -206.721059 32.058945 25 20 26 
70.893811 -211.121481 11.749616 24 19 25 
271.612787 -247.543974 106.814885 182 165 159 
68.976107 -230.475542 21.883958 133 125 133 
100.383014 -240.133036 39.629821 64 56 64 
66.476645 -236.564488 33.084606 137 131 139 
67.326017 -251.628374 3.237205 129 121 129 
65.306128 -246.693505 34.346142 26 21 27 
64.727546 -249.068298 25.299671 130 125 131 
64.727546 -249.068298 25.299671 130 125 131 
264.884848 -277.644510 110.424393 65 46 40 
68.554806 -261.815492 13.137245 132 124 132 
68.554806 -261.815492 13.137245 132 124 132 
263.613069 -292.930172 110.114225 181 160 154 
69.492797 -272.551801 2.581581 136 128 136 
260.852988 -298.911495 111.886454 63 45 39 
278.871309 -311.390238 109.023260 65 45 46 
70.636183 -282.861286 12.335887 129 123 126 
262.944530 -310.902496 115.956144 60 43 41 
262.944530 -310.902496 115.956144 60 43 41 
68.837497 -279.894122 33.012830 136 128 136 
70.552390 -266.289487 102.859150 129 125 132 
69.167220 -278.863715 42.886584 25 21 24 
68.661106 -290.419648 33.187812 28 21 27 
68.661106 -290.419648 33.187812 28 21 27 
72.074685 -277.553980 101.991947 25 20 26 
68.827376 -303.041895 2.374248 23 16 22 
68.827376 -303.041895 2.374248 23 16 22 
69.271520 -303.249250 12.293022 129 123 126 
69.271520 -303.249250 12.293022 129 123 126 
70.469637 -303.541589 21.507106 28 21 28 
70.469637 -303.541589 21.507106 28 21 28 
76.453620 -309.367565 3.905668 135 125 132 
68.604537 -301.570602 32.865384 133 128 134 
72.752693 -288.516628 107.602126 132 119 123 
65.997889 -312.905711 14.713314 32 23 27 
65.136824 -311.422272 34.926927 28 21 27 
66.686930 -310.253807 43.851362 132 125 131 
63.376538 -313.991362 24.190153 131 123 125 
68.523321 -320.061630 5.760550 30 19 21 
79.763432 -299.408358 112.835813 180 159 153 
63.866772 -317.592587 24.162781 28 17 14 
68.172991 -322.067421 12.330996 170 150 145 
63.350005 -309.874857 56.727985 27 21 24 
58.821591 -310.821938 56.124198 22 15 21 
64.226753 -309.487870 77.119597 23 21 26 
94.577538 -309.998443 114.614902 67 46 40 
69.660417 -310.066540 94.684060 25 21 24 
69.660417 -310.066540 94.684060 25 21 24 
69.815273 -322.712354 75.229295 174 155 149 
82.371184 -338.443836 55.412381 173 153 145 
101.299640 -382.585052 2.701371 61 42 36 
101.299640 -382.585052 2.701371 61 42 36 
120.957661 -389.728785 3.908530 58 44 37 
87.293633 -382.315074 12.740851 170 151 145 
87.293633 -382.315074 12.740851 170 151 145 
100.572838 -398.268955 2.172982 59 42 36 
11.986961 -376.184125 1.686099 52 42 34 
11.986961 -376.184125 1.686099 52 42 34 
11.019030 -387.356240 3.865380 53 41 34 
1.887563 -397.827849 3.722187 170 152 142 
1.230654 -7.354088 4.962924 174 154 146 
7.597596 -11.262720 2.444814 51 39 32 
104.832268 -4.713421 1.233156 52 35 29 
110.428964 -6.667220 7.362487 169 150 144 
87.648854 -14.542604 5.164441 173 152 146 
106.762069 -13.623472 3.430062 171 151 145 
210.471907 -11.282369 0.939342 175 153 150 
139.001136 -49.406890 9.401244 172 152 144 
139.001136 -49.406890 9.401244 172 152 144 
259.981231 -49.064304 0.090628 174 154 146 
343.647696 -46.371394 3.755660 178 160 152 
15.143387 -101.626137 4.236277 59 41 38 
13.397844 -101.829315 0.573795 61 41 38 
13.397844 -101.829315 0.573795 61 41 38 
4.057383 -102.693146 1.354715 174 155 150 
14.202113 -110.731787 0.077523 172 151 145 
19.760267 -118.282212 0.658010 60 42 39 
34.954577 -151.637423 0.789670 105 103 108 
34.954577 -151.637423 0.789670 105 103 108 
265.827327 -196.921351 112.887413 186 165 164 
65.894720 -182.328963 5.387858 27 19 27 
66.899910 -191.121691 14.483632 27 19 26 
66.899910 -191.121691 14.483632 27 19 26 
61.245424 -183.462274 105.196217 127 119 132 
62.175118 -207.658246 33.059774 23 18 24 
68.385509 -211.752828 13.499194 24 19 25 
275.324413 -268.995080 111.046026 60 41 40 
67.188569 -262.866269 13.909725 132 124 132 
96.478254 -250.037663 183.281029 64 45 39 
96.478254 -250.037663 183.281029 64 45 39 
68.537561 -277.937103 104.553342 25 20 26 
66.987944 -303.979611 3.473007 23 16 22 
67.823832 -304.243351 13.076347 129 123 126 
67.468393 -303.977695 23.554268 29 21 28 
68.376632 -307.217948 10.021749 134 124 130 
65.611850 -302.059070 34.928328 133 128 134 
64.791412 -314.167996 15.268590 32 23 27 
65.051547 -319.954474 43.225471 46 36 38 
121.448504 -391.781837 3.027977 58 43 37 
105.848855 -393.427568 3.368458 170 152 142 
85.374299 -383.503160 13.652435 170 151 145 
9.161900 -388.065080 4.808798 53 41 34 
1.782334 -399.854765 2.954828 169 151 141 
105.133333 -4.434320 0.887929 52 35 29 
199.795621 -3.610906 3.106969 60 43 37 
2.552173 -13.857841 0.411999 174 153 147 
207.063564 -11.765929 3.312304 176 154 150 
221.097195 -18.630726 2.775679 61 43 40 
331.788422 -47.194849 10.753376 178 160 152 
19.492826 -49.786415 15.291231 169 149 141 
103.528341 -81.097414 0.969688 63 46 40 
103.528341 -81.097414 0.969688 63 46 40 
343.632443 -95.610629 13.484288 182 164 156 
321.050436 -99.777007 0.247641 76 56 53 
325.844644 -103.300790 2.196328 183 165 162 
325.844644 -103.300790 2.196328 183 165 162 
313.782173 -103.168083 4.130268 69 49 46 
313.782173 -103.168083 4.130268 69 49 46 
260.211278 -100.680399 0.488930 181 161 153 
314.349839 -110.006273 1.261921 183 163 160 
7.614668 -89.403741 1.039430 173 152 146 
223.212200 -109.729156 2.054532 67 51 46 
15.003203 -96.392480 0.718413 174 153 147 
16.363816 -101.746914 3.175723 59 41 38 
3.700364 -109.688884 1.664289 57 40 34 
3.700364 -109.688884 1.664289 57 40 34 
62.329796 -198.411156 27.029272 26 18 26 
18.488473 -192.457568 1.258736 44 29 30 
64.818920 -231.241686 25.220381 133 125 133 
62.716156 -251.755105 6.905320 129 121 129 
63.974256 -291.835795 27.128479 132 123 127 
10.790044 -283.143682 0.070978 52 40 33 
64.168146 -302.605331 6.114244 23 16 22 
64.168146 -302.605331 6.114244 23 16 22 
63.996026 -302.558214 16.521802 129 123 126 
63.692812 -302.176254 26.849046 28 20 28 
63.692812 -302.176254 26.849046 28 20 28 
64.134250 -312.192700 26.236118 132 124 126 
65.542998 -316.731828 22.444799 131 123 125 
109.327633 -381.979322 2.360364 173 153 147 
117.457915 -394.795914 0.836588 59 42 36 
99.222274 -394.139521 1.253546 171 153 145 
99.222274 -394.139521 1.253546 171 153 145 
0.406763 -381.611963 0.902497 165 148 142 
4.369522 -12.270522 5.341400 50 38 31 
111.290656 -6.759925 6.653776 167 148 142 
86.634962 -15.114270 5.981632 169 150 144 
103.508845 -14.815358 5.912471 171 152 146 
82.508131 -21.637406 4.166238 52 38 31 
96.386319 -20.998250 2.047994 52 38 31 
119.049001 -19.427041 2.749108 50 37 32 
119.049001 -19.427041 2.749108 50 37 32 
148.842098 -47.684707 1.250874 171 151 143 
148.842098 -47.684707 1.250874 171 151 143 
18.077616 -101.621118 1.714030 57 42 38 
13.957603 -102.097673 0.143067 59 39 36 
13.957603 -102.097673 0.143067 59 39 36 
4.314333 -102.948832 1.370928 174 154 150 
70.291452 -177.821651 0.126526 131 125 133 
78.031130 -181.622169 5.585574 134 126 134 
68.162742 -181.008066 48.383815 30 18 30 
71.283388 -183.181590 1.181311 26 18 26 
71.283388 -183.181590 1.181311 26 18 26 
71.936330 -192.090931 0.269456 130 123 134 
68.152124 -194.416739 29.911660 137 131 139 
3.581120 -187.634975 0.434165 57 39 31 
70.128503 -205.314960 40.266355 137 131 139 
70.727946 -205.986833 29.234189 27 20 26 
72.016878 -204.049648 91.283396 28 20 28 
72.016878 -204.049648 91.283396 28 20 28 
68.083662 -208.757978 28.517161 22 16 19 
72.377598 -228.086755 28.529073 28 21 27 
76.973065 -233.806486 15.732054 136 125 134 
131.381308 -249.617508 15.845353 25 19 25 
6.276196 -225.314038 6.314913 172 152 144 
70.978260 -238.731510 29.665999 139 131 139 
72.144285 -249.729719 29.084453 26 21 26 
78.768427 -254.199042 14.026547 132 125 132 
71.092141 -270.850324 30.981003 28 22 25 
72.262724 -270.330368 40.476134 137 130 140 
72.262724 -270.330368 40.476134 137 130 140 
73.579642 -274.104042 19.470848 130 122 130 
73.239190 -281.390433 39.961665 25 18 24 
70.499416 -281.588840 31.898728 136 129 137 
75.506246 -296.073439 8.017578 24 18 21 
72.134261 -292.755672 30.702371 25 20 25 
72.134261 -292.755672 30.702371 25 20 25 
75.379358 -295.604154 18.218033 132 125 131 
71.349623 -295.122359 25.607641 137 130 136 
76.090516 -306.822847 6.840492 128 123 128 
76.090516 -306.822847 6.840492 128 123 128 
75.079614 -306.295682 17.915082 29 21 29 
74.005148 -304.664246 28.795400 134 127 133 
74.005148 -304.664246 28.795400 134 127 133 
74.430303 -317.285772 7.940293 30 25 26 
72.555084 -313.672191 39.537516 134 126 134 
70.489716 -314.656254 30.893957 29 21 26 
70.489716 -314.656254 30.893957 29 21 26 
70.489716 -314.656254 30.893957 29 21 26 
74.967427 -322.527587 24.723439 135 124 128 
80.095475 -328.837475 2.502960 171 152 147 
72.173606 -322.172618 38.330905 56 46 48 
71.202977 -322.318915 41.268466 135 120 121 
69.419149 -322.752984 43.897984 163 151 147 
4.294207 -5.797504 1.086377 171 153 143 
103.405518 -4.608200 1.937453 51 36 32 
114.904885 -5.467041 4.048753 167 148 142 
199.367304 -3.879672 3.752652 56 39 33 
1.549378 -13.481323 0.909282 171 150 144 
107.042469 -13.659561 3.247295 171 152 146 
327.660252 -11.487076 2.855557 61 44 38 
315.836947 -14.759127 2.257415 173 156 153 
315.836947 -14.759127 2.257415 173 156 153 
221.807974 -18.768915 2.486941 57 39 36 
332.100239 -48.189350 11.143372 177 159 151 
130.646974 -50.502763 15.322985 171 151 143 
199.193896 -77.852575 1.977184 58 44 37 
218.363510 -85.578663 0.335673 175 156 150 
341.810280 -97.345464 14.750765 181 163 155 
321.130993 -94.486263 2.787896 176 160 154 
313.912695 -93.819815 0.136409 177 160 154 
100.084797 -82.234955 3.537698 58 43 39 
115.787621 -85.417779 1.113855 172 154 146 
218.900397 -91.825943 0.646853 61 42 36 
298.116650 -97.311011 2.875741 184 164 161 
323.255429 -104.894790 3.910961 179 161 158 
323.255429 -104.894790 3.910961 179 161 158 
299.113502 -103.211172 0.300588 65 53 46 
255.988075 -102.115318 3.103897 180 160 152 
320.506767 -108.351481 1.575263 183 163 160 
328.340344 -110.751177 3.516223 68 53 49 
312.934381 -111.384995 2.198017 180 160 157 
310.606092 -115.503507 1.214679 127 107 104 
310.606092 -115.503507 1.214679 127 107 104 
325.509944 -118.083554 3.524623 67 53 46 
222.379874 -110.771507 2.828429 62 48 41 
214.093401 -116.390869 1.210708 61 43 40 
223.068636 -117.453447 0.488695 60 46 39 
15.912585 -101.923306 3.391410 56 41 37 
4.683732 -103.152283 0.399282 174 154 150 
2.089413 -110.071865 3.008420 57 39 36 
2.089413 -110.071865 3.008420 57 39 36 
33.776552 -152.310327 1.884369 105 103 108 
61.252684 -182.577574 9.291487 26 18 26 
18.874502 -176.371561 0.236729 45 32 28 
3.373411 -176.571636 0.125817 53 36 30 
61.915291 -194.185329 45.991798 28 21 27 
61.915291 -194.185329 45.991798 28 21 27 
63.645470 -194.375220 24.732399 134 126 134 
248.358909 -292.878670 116.962707 172 155 149 
11.831669 -225.841850 1.836925 171 150 144 
62.726488 -242.260909 6.133002 24 17 23 
62.726488 -242.260909 6.133002 24 17 23 
64.123964 -252.638242 5.435362 129 121 129 
64.123964 -252.638242 5.435362 129 121 129 
64.455023 -272.944380 6.515713 133 127 135 
63.539553 -279.298924 47.042557 25 18 24 
63.539553 -279.298924 47.042557 25 18 24 
66.666523 -289.049040 111.557781 135 125 129 
63.451147 -290.057725 47.094515 135 128 134 
63.451147 -290.057725 47.094515 135 128 134 
63.907206 -292.887546 7.038745 128 120 128 
63.907206 -292.887546 7.038745 128 120 128 
64.368489 -292.687603 26.643638 132 125 131 
63.084910 -300.458946 57.443479 136 129 135 
65.419090 -303.594229 4.803824 23 16 22 
65.419090 -303.594229 4.803824 23 16 22 
65.266699 -303.550790 15.284261 127 122 128 
65.266699 -303.550790 15.284261 127 122 128 
63.661729 -302.849703 26.628807 29 21 29 
74.151487 -309.864315 6.008975 133 123 129 
63.212100 -307.021995 107.055771 120 120 127 
61.372446 -311.259273 58.145759 27 21 24 
67.529090 -317.941357 20.676495 131 123 125 
122.914023 -392.405091 1.701290 59 46 37 
12.228569 -376.280498 1.814947 55 41 34 
5.133136 -399.948421 1.257446 169 151 141 
276.621905 -1.228060 12.840042 60 42 39 
100.002073 -4.767067 3.977362 48 36 32 
100.002073 -4.767067 3.977362 48 36 32 
115.065821 -4.472001 3.269309 169 150 144 
190.516330 -5.819405 9.300541 53 39 32 
92.223199 -12.156399 0.713943 169 150 144 
92.223199 -12.156399 0.713943 169 150 144 
106.204564 -12.906834 3.181838 170 151 145 
197.781683 -14.083030 9.706159 172 152 149 
197.781683 -14.083030 9.706159 172 152 149 
308.322317 -15.954761 13.675542 60 45 41 
117.336041 -18.628628 3.621341 49 39 30 
213.870429 -20.531396 7.527257 57 40 34 
121.435200 -52.197432 21.465831 170 149 143 
121.435200 -52.197432 21.465831 170 149 143 
304.188999 -85.130820 13.494840 60 47 40 
187.607834 -80.154227 9.696902 61 44 38 
282.333465 -89.217108 15.202056 172 159 150 
113.109138 -80.043477 7.503146 56 42 35 
203.523799 -88.191043 9.724026 175 156 150 
298.808437 -97.928643 15.259561 176 159 153 
83.968662 -85.243810 15.524782 57 42 38 
83.968662 -85.243810 15.524782 57 42 38 
288.371678 -99.271885 8.717826 178 158 155 
12.530062 -78.870145 5.331143 52 37 33 
105.422379 -87.325370 8.561859 174 155 149 
274.059523 -104.608680 18.066097 68 49 43 
306.603586 -107.462539 12.949282 180 161 158 
246.740340 -104.176396 8.881628 178 158 150 
246.740340 -104.176396 8.881628 178 158 150 
101.256412 -93.680535 2.117473 59 41 38 
101.256412 -93.680535 2.117473 59 41 38 
194.871021 -104.885065 11.575401 59 44 40 
291.581621 -114.347950 14.063519 178 158 155 
137.744532 -101.920439 15.955385 175 152 145 
114.372089 -96.729969 1.682016 174 155 149 
306.566720 -120.722700 13.913301 64 50 44 
306.566720 -120.722700 13.913301 64 50 44 
5.330841 -89.446767 1.773023 171 150 144 
100.004382 -98.847042 3.078075 73 55 52 
100.004382 -98.847042 3.078075 73 55 52 
205.302197 -113.301157 13.586203 61 47 40 
281.497009 -120.437387 10.830203 64 50 43 
201.499821 -113.941643 7.403454 174 155 149 
107.689137 -103.810531 1.346366 60 43 37 
93.525127 -103.224695 5.093901 172 154 146 
93.525127 -103.224695 5.093901 172 154 146 
189.683112 -114.709366 5.576070 178 157 151 
207.453089 -117.894575 5.554844 82 65 59 
214.683961 -119.074927 6.193763 59 45 38 
81.191353 -106.651527 4.278132 62 45 39 
189.804334 -120.395021 7.520666 63 45 42 
15.956504 -101.877954 2.782751 54 39 35 
99.884269 -111.965386 2.931300 175 155 149 
99.884269 -111.965386 2.931300 175 155 149 
139.662652 -130.858512 12.747859 176 153 146 
85.187705 -135.408653 12.041102 173 152 146 
14.243289 -176.912571 4.332999 42 31 28 
9.874056 -184.930169 2.448892 172 151 145 
57.845154 -201.957646 22.185713 135 127 135 
57.845154 -201.957646 22.185713 135 127 135 
16.237008 -193.293055 3.030805 44 29 30 
57.508007 -221.917001 12.266142 24 18 26 
115.466699 -246.936628 32.523666 25 20 27 
4.048896 -225.581843 8.969105 172 150 147 
59.582767 -248.316206 38.920776 28 21 27 
59.000122 -258.862648 39.827244 138 133 139 
61.018885 -269.630144 38.882053 27 21 24 
60.843088 -279.308081 49.506306 27 20 26 
59.664365 -279.804092 40.405190 137 129 137 
60.182116 -289.802531 50.069716 137 130 136 
60.182116 -289.802531 50.069716 137 130 136 
60.835381 -290.581161 39.628135 25 21 24 
60.192403 -292.183939 30.420399 133 126 132 
60.192403 -292.183939 30.420399 133 126 132 
58.614361 -300.766234 40.968774 135 128 134 
59.218188 -302.185228 30.724496 29 22 28 
59.218188 -302.185228 30.724496 29 22 28 
60.619337 -302.794066 19.611341 128 123 129 
61.816450 -303.149261 8.521596 23 16 22 
