ply
format ascii 1.0
element vertex 1100
property float x
property float y
property float z
property uchar red
property uchar green
property uchar blue
end_header
4.436702 -325.935032 19.584715 43 35 35 
5.267356 -315.780107 21.447789 179 169 169 
5.267356 -315.780107 21.447789 179 169 169 
6.197974 -313.818480 20.931824 179 169 169 
14.533563 -321.086303 19.612014 172 167 166 
12.853045 -311.322074 18.864641 44 34 34 
32.289459 -321.227280 25.544995 174 166 166 
30.817729 -321.206698 19.239350 173 165 165 
2.582070 -290.742287 17.911380 47 41 36 
27.085255 -305.293148 19.123523 47 37 37 
94.775988 -377.722199 15.596414 181 171 171 
31.365639 -308.236112 18.839461 176 167 167 
4.323433 -277.039185 19.742993 181 171 171 
114.590827 -392.047300 15.226924 47 38 35 
119.836120 -388.173515 13.524975 174 164 164 
35.040805 -286.643168 17.769977 45 37 37 
136.177806 -398.289916 17.906638 45 37 32 
95.797837 -321.531319 14.468018 45 33 33 
20.923442 -219.150141 16.198248 165 157 158 
20.923442 -219.150141 16.198248 165 157 158 
95.803620 -305.198242 15.520273 42 32 32 
17.043088 -205.693976 19.981041 164 156 156 
28.220385 -209.882163 14.890074 164 156 156 
19.924202 -199.512180 13.253910 38 28 28 
102.247005 -298.162805 15.848749 170 160 160 
111.121107 -304.417228 14.914929 42 32 32 
26.959985 -192.631774 13.201173 165 155 155 
128.698553 -316.601059 15.973927 171 161 161 
120.056345 -298.607432 18.867790 171 161 161 
120.056345 -298.607432 18.867790 171 161 161 
114.719663 -287.755644 11.959173 171 159 159 
203.971422 -399.046650 3.552789 174 164 164 
200.404785 -391.100948 4.368355 46 36 36 
207.545539 -389.926565 7.219787 43 35 35 
207.545539 -389.926565 7.219787 43 35 35 
197.264456 -374.807166 6.426163 155 143 143 
17.066632 -127.234502 18.867283 166 156 156 
197.631426 -370.703486 3.397611 180 170 170 
211.246304 -385.647828 6.715992 43 33 33 
211.246304 -385.647828 6.715992 43 33 33 
19.275804 -125.294304 10.766679 38 30 30 
180.372034 -339.910568 10.609711 157 147 147 
221.223910 -392.742777 9.351750 172 162 162 
23.489341 -121.132676 10.723501 171 163 163 
23.489341 -121.132676 10.723501 171 163 163 
5.147594 -85.005441 22.609034 157 149 149 
23.373294 -109.604060 9.688270 39 31 31 
23.373294 -109.604060 9.688270 39 31 31 
20.604822 -98.067571 10.142259 165 155 155 
31.985853 -112.739542 10.488493 37 29 29 
230.661025 -382.230448 8.407933 45 36 33 
195.071904 -322.988004 2.833827 181 169 169 
196.543904 -324.177805 4.685539 183 171 171 
37.932451 -86.507171 12.427427 25 17 17 
198.118856 -315.696120 1.643705 46 34 34 
190.811398 -302.711081 1.980906 171 159 159 
190.811398 -302.711081 1.980906 171 159 159 
196.376485 -308.327273 3.298177 37 25 25 
1.800225 -21.742012 10.796239 28 25 24 
194.874267 -300.129478 4.283405 18 10 10 
201.741426 -308.057986 1.031000 159 147 147 
5.004279 -6.678780 10.109432 145 142 143 
5.004279 -6.678780 10.109432 145 142 143 
201.772956 -300.348134 6.326383 17 9 9 
16.734847 -22.414888 10.917200 158 150 152 
6.395647 -3.732147 9.377076 152 147 148 
6.395647 -3.732147 9.377076 152 147 148 
6.395647 -3.732147 9.377076 152 147 148 
22.498200 -20.061921 9.527707 37 32 33 
22.498200 -20.061921 9.527707 37 32 33 
208.320529 -300.055582 6.118672 14 6 6 
212.605685 -305.902637 2.849236 162 150 150 
29.681486 -26.480897 10.056671 37 28 30 
24.500474 -13.129846 10.434410 161 153 155 
24.500474 -13.129846 10.434410 161 153 155 
211.654226 -300.143904 2.346916 167 157 157 
216.425079 -301.993682 0.978568 40 28 26 
216.425079 -301.993682 0.978568 40 28 26 
216.438862 -295.795063 2.802948 16 8 8 
218.763649 -295.294054 1.742482 15 7 7 
218.763649 -295.294054 1.742482 15 7 7 
223.945085 -295.285631 11.848393 149 139 147 
225.242006 -295.538053 10.720621 36 28 28 
228.291672 -301.157763 2.727938 162 152 152 
230.915259 -291.074093 9.790115 13 5 7 
232.516614 -285.314684 1.747069 12 4 4 
236.842501 -273.686795 0.687641 113 105 107 
238.081771 -275.481248 0.536015 16 8 10 
298.038644 -373.505009 1.297125 41 32 29 
298.038644 -373.505009 1.297125 41 32 29 
95.460208 -19.282073 4.583296 181 171 171 
221.206325 -231.475774 3.397890 9 6 7 
98.870496 -16.737345 5.395887 163 153 153 
98.870496 -16.737345 5.395887 163 153 153 
105.278308 -7.133305 2.825407 39 29 31 
114.306622 -16.200227 4.127528 165 155 155 
114.306622 -16.200227 4.127528 165 155 155 
222.137263 -205.640290 13.442872 21 16 17 
226.220144 -208.241242 2.228778 102 94 96 
119.442041 -16.332996 11.741092 38 28 28 
120.055904 -11.407901 5.025856 175 165 165 
120.055904 -11.407901 5.025856 175 165 165 
121.956902 -4.139494 5.672235 168 158 158 
223.303022 -185.802450 0.785329 121 113 115 
220.133252 -167.164943 0.518509 128 120 122 
318.687500 -347.468329 4.187405 161 151 151 
199.968285 -111.764230 3.524363 162 152 154 
199.968285 -111.764230 3.524363 162 152 154 
205.225853 -109.062465 1.146024 33 23 25 
205.225853 -109.062465 1.146024 33 23 25 
193.112201 -78.059952 4.374611 37 27 29 
307.540313 -294.542719 1.053211 164 154 156 
216.308751 -111.854059 0.831288 162 154 156 
212.757139 -100.225986 0.407467 30 20 22 
212.757139 -100.225986 0.407467 30 20 22 
306.855825 -279.580977 0.038705 167 157 159 
320.443247 -298.903982 1.229467 39 29 31 
320.443247 -298.903982 1.229467 39 29 31 
318.594160 -291.401625 2.255344 164 154 156 
303.816020 -259.859716 3.760520 149 137 139 
328.495068 -307.817233 4.025609 163 153 153 
191.657946 -19.271927 6.369274 38 28 30 
335.633346 -314.003106 1.327333 35 28 25 
335.633346 -314.003106 1.327333 35 28 25 
328.424767 -292.405590 5.675863 163 155 155 
212.590432 -47.636208 0.105914 159 151 151 
192.030386 -3.997378 7.721195 39 29 29 
196.253321 -11.763493 4.324706 164 156 158 
196.253321 -11.763493 4.324706 164 156 158 
266.623954 -146.853611 2.282381 105 102 103 
206.560575 -5.609309 3.934331 38 30 30 
213.180315 -10.655682 1.544574 162 154 155 
226.393262 -13.857781 1.636956 37 29 29 
91.123754 -396.802050 3.618906 49 40 37 
14.776912 -309.550840 8.350965 174 166 166 
13.135943 -309.626320 2.037952 176 168 168 
13.135943 -309.626320 2.037952 176 168 168 
23.368403 -318.527676 6.016999 43 35 35 
1.942003 -292.688469 1.580941 176 168 168 
1.942003 -292.688469 1.580941 176 168 168 
8.960945 -293.208162 1.187683 47 37 37 
13.852071 -296.779913 1.604991 176 168 168 
13.852071 -296.779913 1.604991 176 168 168 
13.584293 -283.636357 3.016994 44 37 34 
13.584293 -283.636357 3.016994 44 37 34 
124.262414 -391.817386 6.092721 46 38 33 
118.273038 -377.161675 0.231002 47 39 34 
118.273038 -377.161675 0.231002 47 39 34 
83.583262 -314.135964 2.417683 45 34 34 
82.138949 -296.684842 1.907358 41 31 31 
89.947038 -290.506021 3.744077 170 160 160 
107.071946 -300.478151 9.801916 42 33 30 
116.376426 -308.897360 7.426258 168 158 158 
116.376426 -308.897360 7.426258 168 158 158 
124.283741 -316.777283 6.845302 42 32 32 
124.283741 -316.777283 6.845302 42 32 32 
204.991444 -383.802509 0.719418 43 33 33 
204.991444 -383.802509 0.719418 43 33 33 
215.877785 -391.770564 4.998667 172 162 162 
208.976735 -376.374944 1.071502 44 36 31 
230.517962 -398.065150 4.721226 44 35 32 
225.824682 -381.449574 3.816179 45 36 33 
171.941442 -296.393134 11.536525 36 14 8 
265.715865 -395.642974 1.337313 167 155 155 
202.993262 -298.419648 1.557071 13 5 5 
212.497749 -295.470404 0.051289 15 7 7 
230.103104 -315.499211 2.408208 40 31 28 
230.103104 -315.499211 2.408208 40 31 28 
304.853065 -384.159421 0.854705 168 158 158 
304.853065 -384.159421 0.854705 168 158 158 
217.932657 -231.348912 1.195436 9 6 7 
221.565098 -227.371006 4.739347 82 77 78 
224.351505 -209.477735 2.315467 102 95 96 
113.779126 -6.025293 0.143855 175 165 165 
113.779126 -6.025293 0.143855 175 165 165 
232.246103 -217.280633 1.363192 19 14 15 
221.242170 -186.634345 0.572875 121 113 115 
191.572344 -117.636516 3.391309 35 27 29 
191.572344 -117.636516 3.391309 35 27 29 
300.244346 -312.644272 0.045144 38 29 26 
230.372538 -179.495449 2.950580 22 14 16 
197.235890 -111.080411 2.387372 162 152 154 
197.235890 -111.080411 2.387372 162 152 154 
194.972131 -84.638605 3.283025 159 151 153 
307.873555 -297.532787 2.423913 163 153 155 
315.999460 -309.866349 4.707074 38 29 26 
304.016360 -285.779677 1.789691 160 150 152 
316.287818 -309.666383 4.891216 34 25 22 
316.287818 -309.666383 4.891216 34 25 22 
320.684798 -311.065307 2.651479 165 155 157 
307.958951 -284.566260 3.896462 165 154 156 
307.958951 -284.566260 3.896462 165 154 156 
322.028020 -303.598865 4.813999 39 29 31 
322.028020 -303.598865 4.813999 39 29 31 
223.201163 -103.962819 0.837023 163 153 155 
320.046061 -295.612250 5.172064 164 154 156 
189.752781 -18.332688 6.277236 38 28 30 
189.752781 -18.332688 6.277236 38 28 30 
337.814757 -319.256841 5.549389 35 28 25 
337.814757 -319.256841 5.549389 35 28 25 
324.056913 -289.726386 5.636167 40 28 28 
324.056913 -289.726386 5.636167 40 28 28 
330.600472 -297.296357 9.948334 164 155 156 
212.779473 -50.762149 3.326632 159 151 151 
194.799077 -11.627641 5.113380 164 156 158 
194.799077 -11.627641 5.113380 164 156 158 
229.881548 -81.362819 1.031601 38 28 30 
229.881548 -81.362819 1.031601 38 28 30 
330.314721 -287.365638 4.603168 165 155 157 
330.314721 -287.365638 4.603168 165 155 157 
266.685690 -148.774667 3.655837 105 102 103 
205.691425 -5.681889 5.195130 38 30 30 
213.056205 -12.351744 3.913869 162 154 156 
337.662485 -282.461268 3.965421 40 30 30 
306.411182 -208.104975 5.498736 175 165 167 
308.777256 -207.639401 2.657003 179 169 171 
312.909370 -204.467872 4.190387 36 28 28 
312.909370 -204.467872 4.190387 36 28 28 
320.001046 -202.298403 1.920352 163 153 154 
330.672189 -212.700220 4.291609 160 150 151 
330.672189 -212.700220 4.291609 160 150 151 
327.443230 -203.194526 2.166166 38 29 30 
325.095188 -196.392292 0.669125 169 159 161 
337.171632 -219.377118 3.944308 34 26 28 
328.936992 -191.632135 3.244633 166 156 158 
297.819566 -112.153590 0.141712 37 29 29 
297.819566 -112.153590 0.141712 37 29 29 
337.161575 -206.987629 5.926091 36 29 26 
336.393674 -181.524013 2.660013 34 30 26 
307.090531 -94.010688 0.594778 166 156 158 
318.462828 -104.325960 1.413116 39 29 31 
318.462828 -104.325960 1.413116 39 29 31 
324.758161 -107.521749 2.123082 167 157 159 
324.758161 -107.521749 2.123082 167 157 159 
319.556920 -84.275386 2.338686 38 30 30 
333.593061 -119.327438 3.811174 38 30 32 
333.593061 -119.327438 3.811174 38 30 32 
327.163299 -100.595662 2.479074 164 154 156 
329.654488 -96.654266 2.983379 164 155 157 
329.654488 -96.654266 2.983379 164 155 157 
315.418162 -50.757923 0.701177 161 153 153 
315.418162 -50.757923 0.701177 161 153 153 
308.932483 -18.673783 1.281807 36 28 28 
314.991900 -17.196502 2.402847 169 161 163 
317.933208 -11.866544 3.462245 165 155 157 
317.933208 -11.866544 3.462245 165 155 157 
326.935074 -6.408033 2.568801 164 154 156 
17.851986 -389.958820 13.874473 174 167 164 
1.194043 -311.770629 16.927333 178 169 169 
1.194043 -311.770629 16.927333 178 169 169 
6.717753 -315.234493 11.651544 175 167 168 
6.962347 -306.539180 12.741536 42 35 32 
31.902585 -323.906806 14.828784 43 35 35 
26.687307 -317.658690 15.157212 179 169 169 
26.687307 -317.658690 15.157212 179 169 169 
17.460260 -296.202909 13.591047 178 169 169 
17.460260 -296.202909 13.591047 178 169 169 
103.385753 -393.024593 5.116665 175 166 164 
103.385753 -393.024593 5.116665 175 166 164 
24.171460 -303.263691 11.754463 176 168 168 
24.171460 -303.263691 11.754463 176 168 168 
117.295607 -398.179139 13.679547 175 165 167 
111.070114 -389.661381 12.618373 47 38 35 
111.070114 -389.661381 12.618373 47 38 35 
25.606099 -291.106163 14.860829 45 38 35 
25.606099 -291.106163 14.860829 45 38 35 
116.257231 -385.938624 10.944359 174 164 164 
116.257231 -385.938624 10.944359 174 164 164 
131.815031 -395.721250 14.690086 46 37 34 
126.577463 -381.499309 9.812466 47 39 34 
126.577463 -381.499309 9.812466 47 39 34 
1.698920 -213.489554 10.861134 166 159 158 
91.814961 -319.211415 11.104716 46 36 36 
91.814961 -319.211415 11.104716 46 36 36 
97.609722 -311.058884 9.963763 173 163 163 
97.609722 -311.058884 9.963763 173 163 163 
90.459884 -302.114792 10.650884 43 33 33 
16.866678 -211.644166 9.439209 172 164 164 
12.270612 -202.531422 15.376839 167 157 157 
16.788650 -208.840294 10.203104 38 30 30 
16.788650 -208.840294 10.203104 38 30 30 
2.990468 -187.764082 5.877264 164 156 156 
22.939914 -206.508774 10.017003 165 157 157 
15.298678 -196.479236 8.885729 38 29 29 
115.274663 -305.784288 18.704446 42 33 30 
119.901772 -310.865021 10.890595 168 158 158 
129.963500 -320.466206 13.170863 42 32 32 
108.654838 -283.921684 6.470692 172 162 162 
198.567044 -391.352839 4.417401 47 37 37 
206.587424 -398.274484 7.860752 179 169 169 
206.587424 -398.274484 7.860752 179 169 169 
196.906410 -383.413084 5.304083 45 35 35 
181.632945 -308.432430 134.834344 139 134 133 
7.385021 -119.493394 9.993835 166 156 156 
197.908472 -375.556938 3.797134 48 38 38 
198.173153 -372.230183 6.967851 174 165 165 
209.155059 -385.782306 6.246451 44 34 34 
209.155059 -385.782306 6.246451 44 34 34 
13.765275 -122.145873 5.948872 38 30 32 
153.189390 -302.606170 20.424259 152 142 142 
219.869590 -393.740492 10.574794 172 162 162 
219.869590 -393.740492 10.574794 172 162 162 
159.763823 -271.693060 125.898893 7 3 114 
161.140516 -271.308285 124.572499 170 160 237 
189.777651 -308.661322 129.258238 59 54 54 
14.564158 -110.118765 9.256826 165 159 158 
187.593036 -306.647631 123.255323 61 56 55 
186.990406 -303.616674 124.358582 133 128 128 
20.716056 -116.340604 6.189095 166 158 158 
20.716056 -116.340604 6.189095 166 158 158 
164.176059 -273.311446 118.434206 34 24 154 
213.004264 -378.052021 5.822167 45 36 33 
184.459697 -301.702704 109.633409 36 27 24 
22.346078 -113.347848 5.822375 167 159 159 
22.346078 -113.347848 5.822375 167 159 159 
162.664121 -264.979798 126.644156 22 22 84 
15.223969 -94.851910 5.552219 166 156 156 
28.616959 -111.503511 8.124730 37 29 29 
197.072289 -306.081692 124.555004 128 125 124 
229.066349 -382.898204 8.542140 45 36 33 
24.026042 -92.937804 8.630631 164 156 156 
24.646206 -92.607928 8.797981 166 156 156 
172.018105 -262.921404 113.840076 65 73 74 
174.938588 -298.431204 14.695915 32 7 5 
173.650913 -264.435331 111.335557 64 75 76 
5.703286 -45.961068 22.757097 31 26 25 
30.045096 -83.150945 6.585080 34 24 24 
30.045096 -83.150945 6.585080 34 24 24 
156.061121 -237.354618 94.763556 7 4 7 
184.226947 -306.685229 0.990920 170 158 158 
203.995025 -299.068323 110.943963 22 13 12 
157.741646 -236.039266 98.055985 6 1 2 
178.964349 -262.698583 103.538889 52 62 63 
207.442325 -298.892970 117.809132 59 51 53 
210.637037 -300.832685 126.628510 47 42 43 
158.554931 -234.950038 91.708444 151 147 146 
209.696062 -299.190413 123.089209 31 24 27 
197.211658 -317.140084 2.635868 47 35 35 
190.425417 -303.597103 14.099904 12 4 4 
159.664728 -233.472378 95.297237 169 161 162 
159.713669 -233.421355 94.195031 158 150 150 
159.441937 -233.588537 88.113775 178 170 170 
195.585085 -309.902870 4.938202 36 24 24 
161.882960 -232.591451 96.251169 177 169 171 
193.250628 -300.832530 4.355962 17 9 9 
11.775061 -19.557661 6.908449 158 150 152 
11.775061 -19.557661 6.908449 158 150 152 
200.034309 -300.981706 6.321036 16 8 10 
2.927187 -2.801074 6.809236 151 146 147 
2.927187 -2.801074 6.809236 151 146 147 
80.789208 -109.258831 36.682989 164 154 154 
205.776682 -305.841927 5.494664 45 33 33 
205.776682 -305.841927 5.494664 45 33 33 
6.525195 -1.681159 7.738677 154 148 149 
6.525195 -1.681159 7.738677 154 148 149 
183.504831 -236.459779 125.746500 169 165 161 
215.842413 -291.544378 101.880568 131 122 119 
16.985932 -16.546196 5.273093 37 30 32 
16.985932 -16.546196 5.273093 37 30 32 
266.811604 -395.389580 2.249997 167 155 155 
186.699990 -242.577466 116.650204 3 6 3 
186.699990 -242.577466 116.650204 3 6 3 
218.664769 -294.968870 95.028532 159 140 139 
207.542446 -301.533045 7.377274 15 7 7 
25.044694 -24.052864 6.537365 37 29 31 
219.416562 -292.169539 105.567924 63 23 19 
218.752089 -290.921706 106.416476 170 153 151 
11.418510 -2.564340 6.346472 31 24 26 
11.418510 -2.564340 6.346472 31 24 26 
210.248443 -301.321512 2.867522 167 157 157 
223.690524 -292.599513 107.293652 89 8 0 
223.938615 -293.295200 101.076627 23 14 14 
220.505388 -312.014628 5.963091 164 152 152 
214.926626 -296.942300 3.183398 14 6 6 
218.753547 -297.804521 4.580540 15 6 6 
218.753547 -297.804521 4.580540 15 6 6 
223.173838 -296.954690 13.169519 129 119 126 
223.173838 -296.954690 13.169519 129 119 126 
216.474855 -278.217523 40.418479 22 11 20 
224.662960 -297.409513 12.445681 19 11 11 
224.662960 -297.409513 12.445681 19 11 11 
233.267181 -288.005419 104.974969 12 7 6 
231.348454 -283.334965 106.296317 160 146 146 
225.641194 -296.703251 2.908137 31 23 23 
223.973294 -289.986682 13.615056 130 115 128 
224.415449 -290.358317 14.457121 136 122 134 
224.415449 -290.358317 14.457121 136 122 134 
230.858489 -293.634509 14.320247 29 19 24 
264.227616 -345.521465 4.674529 164 152 154 
233.563522 -288.487614 6.388919 12 4 4 
220.606667 -245.248012 99.095433 124 159 97 
89.457027 -22.798627 4.331995 39 29 29 
306.549924 -384.754339 4.389641 169 158 158 
306.549924 -384.754339 4.389641 169 158 158 
100.148541 -26.623250 5.040311 38 28 28 
225.064020 -238.463952 13.076339 10 6 9 
97.720039 -18.358832 6.135460 164 154 154 
97.720039 -18.358832 6.135460 164 154 154 
314.265959 -384.134820 2.177015 41 31 31 
314.265959 -384.134820 2.177015 41 31 31 
104.338108 -9.090072 3.882183 40 30 32 
315.398910 -377.992896 5.612258 40 32 27 
114.360490 -19.629385 6.417187 165 155 155 
114.360490 -19.629385 6.417187 165 155 155 
226.492530 -210.996411 4.880297 98 91 93 
115.402205 -11.857857 7.530714 36 26 26 
228.779213 -213.973346 3.153581 89 85 86 
116.644349 -9.516685 6.923149 33 23 23 
116.644349 -9.516685 6.923149 33 23 23 
118.175579 -11.097902 4.640195 176 166 166 
235.009550 -220.180298 5.652322 19 14 15 
128.323527 -24.227333 6.716217 39 31 31 
128.323527 -24.227333 6.716217 39 31 31 
121.682160 -6.959875 7.668395 166 156 156 
124.540003 -2.212335 7.535222 168 158 158 
124.540003 -2.212335 7.535222 168 158 158 
124.776660 -1.236259 7.335389 168 159 159 
195.056727 -121.903250 7.952539 35 27 29 
195.056727 -121.903250 7.952539 35 27 29 
301.710753 -313.956948 3.778160 38 29 26 
301.710753 -313.956948 3.778160 38 29 26 
232.472230 -181.708225 5.950334 22 14 16 
201.051436 -116.150315 7.526458 162 152 154 
201.051436 -116.150315 7.526458 162 152 154 
295.395725 -279.714395 7.217762 35 25 27 
297.565601 -282.550790 5.955227 37 27 27 
193.877742 -81.693014 7.789608 37 27 29 
202.531165 -95.015248 1.435018 162 152 152 
310.369019 -300.492365 8.551781 161 151 153 
218.055538 -117.182066 6.045266 164 154 156 
218.055538 -117.182066 6.045266 164 154 156 
218.055538 -117.182066 6.045266 164 154 156 
316.932647 -310.814446 7.326964 37 27 29 
316.932647 -310.814446 7.326964 37 27 29 
305.525987 -287.274209 5.445886 160 150 152 
316.715198 -306.657604 7.583220 164 154 154 
316.715198 -306.657604 7.583220 164 154 154 
216.181863 -106.503074 4.147960 39 29 31 
321.738328 -311.976266 5.572212 165 155 157 
218.423242 -103.606491 2.859833 38 28 30 
218.423242 -103.606491 2.859833 38 28 30 
231.323696 -121.363288 5.573586 35 27 29 
231.323696 -121.363288 5.573586 35 27 29 
322.933310 -304.420579 7.493216 38 28 28 
226.325412 -108.520310 5.456355 164 154 156 
321.173994 -296.973295 8.711028 162 152 154 
223.705832 -98.982385 4.549553 34 24 26 
306.738155 -265.862260 10.574235 145 133 135 
193.816961 -25.245401 11.885720 38 28 30 
193.816961 -25.245401 11.885720 38 28 30 
226.090306 -91.643153 5.365551 162 152 154 
226.090306 -91.643153 5.365551 162 152 154 
338.232768 -319.579142 7.554628 36 26 26 
338.232768 -319.579142 7.554628 36 26 26 
233.184771 -103.125094 6.198706 39 29 31 
330.970768 -297.646756 11.255586 161 153 153 
211.648591 -47.982864 0.968305 162 152 154 
193.960669 -9.551277 12.708463 40 29 30 
198.395913 -17.776894 10.006948 163 155 157 
198.395913 -17.776894 10.006948 163 155 157 
232.113952 -85.008107 4.502965 39 29 31 
330.921979 -288.067507 6.858960 164 154 156 
330.921979 -288.067507 6.858960 164 154 156 
270.284407 -154.472419 10.082134 103 100 101 
209.162109 -12.373073 10.310590 38 30 30 
216.019815 -17.813648 8.164651 163 155 156 
304.015523 -203.411647 4.572386 159 150 152 
304.015523 -203.411647 4.572386 159 150 152 
214.357238 -3.974082 7.109178 164 156 157 
308.482391 -203.510558 2.778005 12 3 4 
229.184707 -20.613176 8.068500 37 29 29 
313.871719 -206.487113 7.068610 35 27 27 
320.728223 -207.596633 2.862539 160 150 150 
320.728223 -207.596633 2.862539 160 150 150 
320.346340 -203.275313 3.569048 162 152 154 
320.346340 -203.275313 3.569048 162 152 154 
331.076536 -214.088805 6.511706 161 151 153 
327.850920 -204.701899 4.316494 39 29 31 
337.509396 -220.725417 6.219243 35 27 29 
329.068238 -192.194049 4.504723 167 155 155 
298.494507 -114.808195 2.594572 37 29 29 
298.494507 -114.808195 2.594572 37 29 29 
337.213059 -207.653572 7.035451 36 28 28 
294.033899 -82.791227 1.422860 39 29 31 
294.033899 -82.791227 1.422860 39 29 31 
261.698395 -2.239260 3.238363 158 150 150 
261.698395 -2.239260 3.238363 158 150 150 
309.083964 -116.252422 3.117099 167 157 159 
309.083964 -116.252422 3.117099 167 157 159 
336.753564 -183.725526 5.588166 35 29 27 
336.753564 -183.725526 5.588166 35 29 27 
311.272749 -112.306006 2.261123 167 157 159 
308.037460 -97.892747 4.108780 165 155 157 
320.458498 -115.025842 3.190668 166 156 158 
318.882062 -106.953616 3.741926 39 29 31 
318.882062 -106.953616 3.741926 39 29 31 
313.923146 -88.986359 4.115756 170 160 162 
313.923146 -88.986359 4.115756 170 160 162 
316.657979 -94.021680 4.693555 32 24 24 
325.294302 -112.390157 1.836755 38 28 30 
319.921454 -87.548405 5.021732 39 31 31 
334.280684 -123.234841 7.503656 39 30 32 
334.280684 -123.234841 7.503656 39 30 32 
327.433844 -103.724490 5.136978 165 155 157 
296.215095 -20.621855 3.725092 37 29 29 
296.215095 -20.621855 3.725092 37 29 29 
316.320666 -55.194049 4.069365 162 152 154 
299.877813 -9.113115 3.371954 165 155 157 
333.216353 -90.867511 6.332043 35 30 29 
333.216353 -90.867511 6.332043 35 30 29 
308.858905 -20.968913 2.428214 36 28 28 
315.179302 -19.794873 3.914957 165 157 159 
315.179302 -19.794873 3.914957 165 157 159 
318.078918 -15.745561 5.806367 165 155 157 
318.078918 -15.745561 5.806367 165 155 157 
320.778180 -16.190528 3.607473 170 160 162 
315.445362 -0.785438 3.458537 38 27 31 
315.445362 -0.785438 3.458537 38 27 31 
323.185050 -15.255758 3.274646 38 28 30 
323.185050 -15.255758 3.274646 38 28 30 
323.556032 -15.509069 3.187076 38 28 30 
323.556032 -15.509069 3.187076 38 28 30 
327.038829 -10.696302 5.070407 164 154 156 
327.038829 -10.696302 5.070407 164 154 156 
7.780620 -304.963762 1.138598 174 166 166 
116.255720 -398.851791 2.217063 175 165 165 
116.255720 -398.851791 2.217063 175 165 165 
95.399407 -295.629439 0.085388 42 32 32 
111.343964 -306.357251 2.652668 168 158 158 
119.463359 -314.438711 2.176396 42 32 32 
178.357171 -342.992225 14.088355 157 147 147 
212.216736 -390.479952 1.029942 172 162 162 
215.735099 -387.815814 0.638779 170 160 157 
226.876950 -396.686146 0.333649 44 35 32 
223.289717 -380.897650 1.510142 45 36 33 
165.292327 -292.561931 3.758695 31 7 5 
201.186115 -279.851073 46.019935 18 13 14 
202.499657 -274.092475 33.811336 55 54 77 
219.033214 -294.603898 5.794672 11 4 4 
219.033214 -294.603898 5.794672 11 4 4 
211.854316 -275.944525 36.189735 31 20 30 
222.009073 -294.549700 6.935185 17 9 9 
219.062274 -287.786742 8.232340 133 119 131 
219.062274 -287.786742 8.232340 133 119 131 
226.235903 -291.663912 9.156115 27 18 22 
226.214750 -291.605664 7.184151 10 2 3 
296.567352 -377.521521 1.445714 43 32 29 
296.567352 -377.521521 1.445714 43 32 29 
304.493601 -385.581879 1.132157 167 157 157 
219.691101 -234.826858 6.479654 10 6 9 
261.939967 -277.917747 1.278221 159 147 149 
223.038960 -209.616474 1.378832 99 91 93 
232.429802 -219.691033 3.363482 18 13 14 
114.761926 -0.386532 1.773234 166 156 156 
318.444550 -351.955245 4.203083 160 150 150 
190.785391 -118.598121 3.823507 35 27 29 
190.785391 -118.598121 3.823507 35 27 29 
338.506033 -380.599866 2.839912 39 30 27 
338.506033 -380.599866 2.839912 39 30 27 
196.826657 -112.539272 3.247514 162 152 154 
234.575387 -175.691446 4.347675 14 9 10 
205.918451 -118.171343 1.455967 38 28 30 
295.982944 -282.540703 2.926341 36 26 26 
190.038966 -78.347053 4.344960 37 27 29 
190.038966 -78.347053 4.344960 37 27 29 
308.135616 -299.341432 3.188332 161 151 152 
207.463620 -106.850611 3.079445 164 154 154 
304.656911 -288.043342 3.595887 160 150 152 
317.239680 -310.950135 5.722906 31 21 21 
213.906116 -112.968275 1.178777 164 154 156 
213.906116 -112.968275 1.178777 164 154 156 
213.906116 -112.968275 1.178777 164 154 156 
321.522070 -313.451867 4.345392 165 155 157 
310.918948 -290.620644 3.753747 38 28 28 
216.090687 -99.155523 3.302854 164 154 154 
322.766304 -305.868625 6.343992 38 28 28 
228.239984 -118.468639 2.054319 35 27 29 
320.940600 -298.092788 7.257282 162 152 154 
223.884709 -106.607768 3.207397 164 154 156 
220.811777 -96.144086 1.497877 34 24 26 
339.144568 -322.223260 8.305548 36 26 26 
223.623527 -89.227548 2.966906 162 152 154 
223.623527 -89.227548 2.966906 162 152 154 
190.154698 -20.548172 8.382912 38 28 30 
190.154698 -20.548172 8.382912 38 28 30 
183.997844 -3.373852 23.338726 160 152 152 
331.690334 -299.821573 11.584906 162 154 154 
211.226916 -49.365752 2.390843 161 151 153 
190.870784 -5.447042 10.318456 39 28 29 
195.988092 -14.944659 8.241976 164 156 158 
195.988092 -14.944659 8.241976 164 156 158 
331.245375 -289.670076 5.935092 164 154 156 
229.428337 -81.663313 1.480029 39 29 31 
229.428337 -81.663313 1.480029 39 29 31 
298.891987 -216.152917 4.662431 32 25 23 
268.876237 -152.908803 7.896308 103 100 101 
206.054613 -7.359155 7.160075 38 30 30 
206.054613 -7.359155 7.160075 38 30 30 
214.904909 -16.804844 8.229127 163 155 155 
304.495926 -204.695061 4.779923 160 150 152 
304.495926 -204.695061 4.779923 160 150 152 
310.377710 -216.206916 5.339019 159 151 153 
310.377710 -216.206916 5.339019 159 151 153 
212.314272 -0.601801 5.554076 164 156 158 
313.128165 -214.644541 6.041396 159 149 151 
321.921184 -205.700842 5.111489 162 152 154 
321.921184 -205.700842 5.111489 162 152 154 
323.870700 -202.606339 3.049482 163 155 155 
323.870700 -202.606339 3.049482 163 155 155 
327.368707 -208.465004 4.916416 33 23 25 
327.368707 -208.465004 4.916416 33 23 25 
332.531858 -215.813534 7.211837 161 151 153 
329.475357 -206.820215 5.610303 38 29 30 
339.349864 -223.250208 7.634088 35 27 29 
339.349864 -223.250208 7.634088 35 27 29 
330.878599 -194.608544 6.099332 167 155 155 
300.065404 -116.045835 4.256338 37 29 29 
268.717775 -41.428854 4.313875 160 150 152 
310.762483 -118.601220 5.395120 167 158 160 
310.762483 -118.601220 5.395120 167 158 160 
338.874586 -185.573436 6.809891 35 29 27 
312.617528 -112.456865 2.832872 167 157 159 
309.502772 -97.672485 4.605984 165 155 157 
322.898254 -116.898565 5.555881 166 156 158 
321.151179 -108.270121 5.714057 39 29 31 
322.036266 -87.484464 6.132601 39 31 31 
329.993908 -104.569946 6.822840 164 155 157 
318.777851 -54.951152 5.570102 162 152 154 
302.214731 -8.544929 5.258746 165 155 157 
305.321952 -1.392661 6.684315 37 32 33 
305.321952 -1.392661 6.684315 37 32 33 
324.590553 -17.971188 7.759379 170 160 162 
318.698641 -0.775171 6.233997 38 27 31 
318.698641 -0.775171 6.233997 38 27 31 
331.064843 -12.062841 9.038079 164 154 156 
331.064843 -12.062841 9.038079 164 154 156 
336.521048 -28.155650 11.480435 39 31 33 
7.965252 -305.007590 1.289056 173 165 165 
117.293853 -399.117941 4.295837 175 165 165 
117.293853 -399.117941 4.295837 175 165 165 
18.397397 -275.869752 1.790688 47 37 37 
118.801444 -388.702422 0.981759 46 38 33 
101.281335 -297.564813 3.941554 42 35 32 
101.281335 -297.564813 3.941554 42 35 32 
109.750492 -305.693787 1.393635 169 161 161 
120.464957 -315.528864 4.181768 42 32 32 
171.910892 -300.439690 126.284513 131 126 127 
154.203219 -294.436592 85.354584 159 149 149 
185.437723 -306.279237 145.791516 26 20 23 
185.506268 -305.936544 146.638074 126 121 120 
182.776279 -303.896748 141.467954 206 203 204 
188.309039 -351.722555 30.894080 155 145 145 
150.063321 -262.789634 116.524951 13 9 108 
144.563687 -253.713935 119.256957 19 12 122 
150.310480 -262.146034 115.268905 171 161 240 
149.664280 -261.031270 113.314864 44 33 106 
150.025928 -261.365230 112.561244 144 138 188 
152.723127 -265.040309 111.373447 147 152 180 
178.802854 -296.953782 117.496480 126 121 121 
156.452232 -264.260743 111.736278 144 146 170 
207.749121 -376.945304 1.431372 44 35 32 
157.076527 -264.077348 105.924019 31 20 139 
186.893871 -298.324136 118.508967 231 231 232 
159.381906 -258.535949 111.904218 60 71 72 
182.718365 -292.239456 101.016526 44 38 37 
147.579393 -242.257681 103.439692 161 156 159 
221.870548 -380.265941 0.576829 44 36 31 
221.870548 -380.265941 0.576829 44 36 31 
162.187975 -255.955625 103.702888 57 68 69 
161.958754 -254.375873 104.675598 61 72 73 
165.605360 -256.661366 102.315077 59 68 69 
170.707240 -297.716637 12.301146 32 12 9 
171.150400 -300.864974 5.420048 8 0 0 
192.180897 -292.857434 103.445031 124 113 113 
192.180897 -292.857434 103.445031 124 113 113 
145.716580 -230.311809 88.598775 5 1 2 
197.653535 -294.491159 112.826727 8 3 2 
145.455186 -228.687869 85.251682 7 6 7 
145.455186 -228.687869 85.251682 7 6 7 
145.505549 -228.909952 82.122068 156 153 154 
145.505549 -228.909952 82.122068 156 153 154 
197.557226 -293.794293 105.595672 28 21 18 
146.665205 -226.874419 88.149846 2 1 0 
146.466561 -227.065432 85.252220 162 156 158 
203.605998 -294.786979 120.632494 45 40 41 
147.833482 -225.569131 86.790180 149 142 139 
148.422305 -225.617640 88.435331 8 3 0 
148.335954 -226.642753 82.547048 153 148 147 
187.177714 -297.472057 40.769156 40 24 22 
149.895371 -225.448097 86.700178 180 172 172 
149.917243 -225.395985 85.678104 159 152 149 
149.775194 -225.423785 82.976652 21 13 13 
169.588439 -251.395646 89.578999 100 109 110 
182.219321 -299.617537 5.594656 12 4 4 
172.056457 -265.719659 55.801281 28 20 18 
150.568226 -223.030600 85.997614 161 153 155 
205.111727 -294.566444 73.377101 39 30 27 
204.511111 -287.333299 82.030390 48 14 13 
172.980124 -230.153291 110.311061 161 151 151 
89.382865 -122.468615 49.890962 162 152 152 
210.116886 -290.080010 84.903184 180 159 158 
208.189304 -290.068797 75.979207 21 13 14 
211.957335 -289.403192 90.834050 33 21 19 
211.824369 -285.219669 100.062596 178 156 157 
213.228389 -288.069320 95.301456 26 11 7 
213.127271 -290.451477 84.329817 28 17 20 
217.394146 -287.478708 101.479827 97 10 1 
217.604876 -286.406393 104.092137 126 15 1 
198.834336 -277.942112 43.753608 8 0 0 
218.925845 -289.429999 96.852622 21 15 16 
227.783795 -287.583903 119.207670 116 44 36 
223.637521 -286.976584 99.067454 24 14 16 
227.811595 -287.854428 115.663634 203 180 171 
225.732692 -286.277389 106.842849 175 163 165 
230.438284 -286.557904 115.581878 94 25 23 
190.003304 -225.062806 103.491536 57 72 49 
231.647471 -284.720533 116.746639 195 170 156 
231.647471 -284.720533 116.746639 195 170 156 
228.095009 -283.722070 100.511494 8 3 2 
219.287648 -272.300626 92.699556 158 146 145 
217.025248 -293.948637 12.765485 143 129 144 
219.383523 -294.251911 19.618433 25 14 18 
209.787774 -274.351249 33.216352 58 43 57 
218.491233 -294.816482 5.742693 10 2 2 
218.491233 -294.816482 5.742693 10 2 2 
221.529917 -294.870171 16.046165 153 143 158 
235.623807 -285.142654 117.580047 180 156 146 
196.517144 -229.189609 96.107338 126 127 122 
217.378149 -286.725424 6.487425 145 129 141 
217.378149 -286.725424 6.487425 145 129 141 
222.477868 -293.498324 8.339400 24 16 17 
225.539163 -294.640741 9.644971 25 18 15 
225.605250 -290.494275 19.833532 20 7 11 
209.677721 -233.011393 107.966885 50 45 44 
212.759496 -240.865636 94.131474 49 103 24 
261.476571 -345.673010 2.068437 161 151 151 
215.251098 -240.117412 92.991564 80 100 66 
215.000936 -238.892791 94.623551 62 79 49 
298.805042 -398.243950 0.312557 42 35 27 
216.247611 -226.421547 97.092551 5 0 0 
296.843781 -378.491692 2.669205 41 32 29 
296.843781 -378.491692 2.669205 41 32 29 
304.396043 -386.176299 1.332190 168 158 158 
304.396043 -386.176299 1.332190 168 158 158 
208.903626 -209.332606 44.254098 142 134 136 
208.903626 -209.332606 44.254098 142 134 136 
215.614899 -209.014851 63.625300 164 154 156 
313.340320 -386.783998 1.628056 38 31 28 
313.340320 -386.783998 1.628056 38 31 28 
222.210216 -228.249596 0.069608 78 74 77 
106.557776 -13.651749 0.286598 165 155 155 
213.378105 -200.251437 4.469155 19 16 17 
324.271879 -394.979055 0.097976 41 31 28 
111.456467 -11.302355 6.172819 38 28 28 
110.696511 -9.422421 2.365256 26 16 16 
331.029009 -389.597459 6.387603 166 157 154 
186.702126 -122.322872 2.031764 157 147 149 
191.097491 -120.207366 5.167600 33 25 27 
218.083364 -170.075540 1.571478 128 120 122 
218.474451 -170.141159 2.831069 128 122 123 
318.338229 -352.032643 2.630111 160 150 150 
301.086236 -315.954949 2.584279 38 29 26 
210.952367 -147.514493 1.040526 150 140 142 
229.576782 -181.047078 3.715014 19 14 15 
338.623742 -381.428723 3.003450 38 30 25 
338.623742 -381.428723 3.003450 38 30 25 
197.171149 -114.038061 4.439218 162 152 154 
197.171149 -114.038061 4.439218 162 152 154 
302.397710 -308.892731 5.498233 161 152 149 
302.397710 -308.892731 5.498233 161 152 149 
205.483214 -118.529419 1.539823 38 27 29 
297.648366 -285.242581 7.057060 34 24 24 
297.648366 -285.242581 7.057060 34 24 24 
190.882668 -80.472889 6.302393 37 27 29 
194.559807 -86.800439 6.070516 159 151 153 
194.559807 -86.800439 6.070516 159 151 153 
194.725985 -86.911065 5.315981 162 154 156 
194.725985 -86.911065 5.315981 162 154 156 
200.150378 -94.834814 0.605370 162 152 152 
206.516867 -106.313566 2.217083 164 154 154 
216.963029 -124.121902 3.981030 37 27 29 
309.738728 -302.184591 7.104066 159 151 151 
211.998661 -112.912622 3.679724 168 158 160 
211.998661 -112.912622 3.679724 168 158 160 
214.729816 -115.064008 3.052533 161 153 155 
214.729816 -115.064008 3.052533 161 153 155 
305.330320 -289.424688 5.190904 159 149 149 
213.079626 -104.749120 1.673208 38 28 30 
322.470452 -315.252773 6.480324 164 154 156 
219.492406 -107.205942 6.581362 32 22 24 
323.706827 -307.626133 8.424889 35 25 25 
320.406645 -297.636354 5.516096 159 151 153 
221.814335 -98.535718 3.687396 36 26 28 
308.025678 -269.811028 13.442402 140 128 130 
332.571949 -316.979262 12.362757 161 151 151 
191.151554 -23.002552 10.447923 38 28 30 
191.151554 -23.002552 10.447923 38 28 30 
340.103004 -323.861959 10.173921 32 25 22 
231.744735 -102.876718 5.585903 36 28 30 
332.063992 -300.719334 11.943768 161 151 153 
212.994904 -52.307883 5.067629 159 151 151 
212.994904 -52.307883 5.067629 159 151 151 
192.341804 -8.461377 13.117865 38 27 27 
194.944891 -13.612664 7.295309 166 156 158 
194.944891 -13.612664 7.295309 166 156 158 
331.691384 -290.439129 6.385163 160 150 150 
195.621931 -1.742749 11.412909 164 156 156 
195.621931 -1.742749 11.412909 164 156 156 
271.391723 -157.550218 13.253952 98 95 96 
299.645482 -217.438441 5.841744 32 25 22 
208.788494 -12.851813 11.919807 38 30 30 
208.788494 -12.851813 11.919807 38 30 30 
306.372598 -208.032345 8.569341 158 148 150 
306.372598 -208.032345 8.569341 158 148 150 
311.311005 -217.653023 6.732808 161 152 154 
311.311005 -217.653023 6.732808 161 152 154 
213.302311 -2.708011 7.473146 164 156 158 
314.544853 -217.265715 8.975778 158 148 150 
316.184488 -210.565014 10.504546 32 29 28 
323.491365 -212.219646 6.810469 159 149 149 
323.491365 -212.219646 6.810469 159 149 149 
322.675531 -207.007679 6.334213 160 150 152 
322.675531 -207.007679 6.334213 160 150 152 
326.356772 -205.899180 7.530209 160 152 152 
334.313509 -218.872560 10.709927 160 150 152 
334.313509 -218.872560 10.709927 160 150 152 
331.220171 -209.911825 9.143481 38 28 28 
341.504318 -227.005513 12.337118 32 25 25 
332.640096 -197.588850 9.530295 160 152 152 
301.664629 -118.853802 7.071171 36 28 28 
304.751068 -107.228685 10.563761 167 157 159 
298.003135 -88.501450 8.030283 39 29 31 
265.571426 -6.645595 9.865513 157 149 149 
265.571426 -6.645595 9.865513 157 149 149 
311.060710 -116.772174 3.970147 166 156 158 
311.060710 -116.772174 3.970147 166 156 158 
340.841292 -189.020070 10.639550 36 28 28 
340.841292 -189.020070 10.639550 36 28 28 
308.792338 -110.385729 8.866999 38 30 30 
308.792338 -110.385729 8.866999 38 30 30 
311.721682 -102.058704 9.142426 164 154 154 
325.178334 -120.828981 9.844054 164 154 156 
323.192208 -112.039669 9.646844 39 29 31 
323.192208 -112.039669 9.646844 39 29 31 
322.776563 -102.882681 14.753466 36 26 28 
324.711717 -93.171595 11.720899 38 28 28 
338.933778 -127.950517 13.102195 39 30 31 
332.001967 -107.995608 10.617185 165 155 157 
300.619456 -24.936339 10.010298 37 29 29 
301.618617 -24.624894 10.605933 39 29 29 
301.618617 -24.624894 10.605933 39 29 29 
298.436375 -0.995325 11.096855 38 30 30 
323.483875 -66.795127 16.726987 159 151 151 
306.074493 -17.348006 13.196231 165 155 157 
314.380236 -26.684711 10.118266 38 29 29 
308.810587 -9.248242 13.775057 34 29 30 
308.810587 -9.248242 13.775057 34 29 30 
324.364505 -25.593473 14.433218 164 156 158 
324.364505 -25.593473 14.433218 164 156 158 
326.307922 -20.321403 9.947004 176 168 170 
319.017247 -0.670404 15.705105 168 158 160 
329.924018 -22.826235 13.084807 33 23 25 
329.924018 -22.826235 13.084807 33 23 25 
337.805764 -28.811602 12.818460 38 30 30 
334.887194 -21.128590 17.391778 164 154 156 
336.430488 -6.100042 15.798212 35 30 29 
1.077591 -347.093922 5.850941 171 163 163 
104.216814 -299.452416 7.105663 43 36 33 
104.216814 -299.452416 7.105663 43 36 33 
113.161242 -307.496233 5.335781 172 162 162 
113.161242 -307.496233 5.335781 172 162 162 
122.220856 -316.143574 6.079386 42 32 32 
122.220856 -316.143574 6.079386 42 32 32 
105.692879 -291.131922 5.652742 174 164 164 
105.692879 -291.131922 5.652742 174 164 164 
44.168692 -190.059797 47.829899 165 155 155 
157.041120 -294.228631 96.276810 17 11 14 
154.966838 -295.134908 85.505225 160 150 150 
173.332095 -301.060130 127.165194 142 135 134 
182.769316 -304.478479 139.046187 30 27 26 
183.324848 -303.838378 141.457856 217 214 215 
183.324848 -303.838378 141.457856 217 214 215 
171.396786 -299.660449 113.638834 103 98 99 
214.342816 -391.612416 5.635917 173 163 163 
138.931531 -257.357361 114.401983 35 25 113 
146.242552 -265.714036 113.176645 53 45 109 
176.298454 -299.520306 113.567566 121 111 111 
147.878380 -300.100568 16.751425 152 142 142 
147.878380 -300.100568 16.751425 152 142 142 
219.348318 -392.035774 6.037654 173 163 163 
219.348318 -392.035774 6.037654 173 163 163 
156.536177 -284.328738 86.507023 51 42 46 
184.916702 -304.011718 125.236862 54 51 50 
153.310805 -265.851902 120.533513 9 6 112 
180.342415 -300.022242 116.555241 61 56 55 
181.507608 -301.692734 115.721790 145 137 137 
208.832879 -376.929240 2.989310 45 36 33 
145.365770 -253.931087 119.479541 25 18 112 
145.365770 -253.931087 119.479541 25 18 112 
182.993429 -299.817977 121.588118 129 124 124 
154.072115 -264.911906 118.582060 165 157 239 
184.074672 -302.348521 115.370683 136 129 128 
151.252484 -262.006472 113.334538 122 116 168 
228.216151 -397.541061 3.541964 44 36 31 
174.571239 -287.949300 119.508301 71 68 69 
156.024531 -266.251143 111.158920 32 27 148 
156.024531 -266.251143 111.158920 32 27 148 
179.587920 -297.568218 105.468879 29 24 25 
179.858371 -296.633612 108.699217 53 45 45 
155.491342 -262.501501 114.715761 150 154 156 
159.411112 -267.576151 111.286003 126 134 190 
177.802620 -293.778042 101.066647 98 90 90 
155.279193 -263.592793 102.996187 25 22 99 
188.472291 -299.216608 119.702441 238 238 238 
157.517898 -263.870232 107.129851 21 25 88 
159.442336 -265.719590 107.816110 28 20 144 
188.928980 -298.981639 117.044244 133 130 129 
191.416471 -299.837759 122.863986 13 12 14 
177.765069 -291.126927 96.105475 88 83 82 
159.891861 -299.893143 6.004213 23 11 11 
183.910281 -294.968419 105.011434 23 18 17 
223.484655 -380.813802 3.368312 45 37 32 
223.484655 -380.813802 3.368312 45 37 32 
182.721983 -293.782105 96.726948 17 9 11 
182.721983 -293.782105 96.726948 17 9 11 
160.140308 -258.846004 112.322926 55 66 67 
187.885561 -294.745156 109.314040 125 120 119 
146.892441 -244.483876 103.287890 84 92 96 
190.010509 -294.800268 108.261575 35 32 31 
148.698440 -243.346144 103.477006 161 160 162 
193.181547 -296.097069 114.060934 26 18 20 
192.299514 -295.858135 111.209319 117 112 111 
161.470029 -254.759959 103.926415 106 116 117 
175.867184 -304.236119 11.905807 9 1 2 
194.496024 -293.977433 111.524040 19 14 12 
171.511321 -262.657617 111.968962 83 94 95 
193.881664 -293.929631 104.963627 123 113 113 
160.756779 -250.728232 101.842197 103 110 111 
199.587084 -295.680063 114.488293 6 3 3 
197.322085 -294.652710 108.478898 23 18 14 
160.013901 -264.340523 53.912984 114 104 104 
160.013901 -264.340523 53.912984 114 104 104 
153.913386 -238.681573 101.535029 7 4 5 
184.212696 -296.591857 44.955210 171 161 161 
198.401101 -294.100364 106.142622 22 14 12 
16.466965 -89.875837 2.308132 166 156 156 
16.466965 -89.875837 2.308132 166 156 156 
147.113171 -231.894533 87.803672 160 156 159 
20.954261 -93.540929 6.300450 166 158 158 
20.954261 -93.540929 6.300450 166 158 158 
205.822189 -296.249733 122.655356 47 41 43 
202.303104 -294.746679 112.865363 55 47 47 
202.469310 -294.541495 113.723327 47 39 39 
169.854362 -255.830465 100.906418 73 82 83 
17.155077 -87.406785 3.913338 29 21 21 
149.200832 -233.172321 86.049137 166 163 165 
189.461402 -299.203998 46.275795 144 134 129 
149.342626 -232.032212 89.007581 10 6 8 
149.233847 -232.146553 85.818726 159 156 157 
149.233847 -232.146553 85.818726 159 156 157 
185.473054 -293.065790 43.128971 51 46 44 
153.584977 -233.192372 95.204975 7 2 3 
149.871370 -229.999076 88.571570 155 150 151 
172.981644 -272.077606 52.053657 26 18 18 
150.640935 -231.249212 83.189843 159 155 158 
150.640935 -231.249212 83.189843 159 155 158 
193.259853 -299.623136 44.779217 44 26 23 
151.679377 -228.982157 90.539111 150 142 143 
151.279071 -229.157031 85.444649 154 150 149 
151.279071 -229.157031 85.444649 154 150 149 
194.567896 -293.279143 64.443274 161 126 127 
195.923208 -293.882391 63.309515 188 154 155 
152.059366 -227.204066 87.608053 169 163 160 
187.467696 -300.289919 4.771555 58 50 50 
193.645426 -271.455826 117.271920 98 105 106 
200.154917 -296.454646 66.838271 176 154 151 
197.147505 -298.156914 47.503116 74 63 60 
119.458273 -185.462115 74.140909 166 156 156 
153.017685 -225.576029 86.895024 38 31 30 
153.080074 -225.171865 88.348484 167 163 160 
208.313928 -292.386565 106.252131 13 10 9 
153.135249 -227.178441 78.672512 174 166 166 
146.073280 -213.516692 84.551727 5 5 5 
185.120059 -265.703459 85.068247 113 110 139 
179.012086 -255.382623 88.530118 56 67 68 
204.864273 -293.914210 72.698318 57 46 43 
266.287439 -398.070711 4.771439 164 154 154 
206.765688 -292.115872 83.416554 176 145 141 
205.380877 -293.243512 71.250686 144 139 136 
183.707356 -259.169966 83.777135 112 123 131 
208.273972 -292.819563 82.470201 181 159 156 
207.012255 -289.368280 84.884080 45 11 10 
208.117308 -291.887364 74.907189 18 13 10 
209.712095 -292.200952 80.016627 43 34 31 
161.872371 -224.352249 87.786500 49 41 44 
161.872371 -224.352249 87.786500 49 41 44 
209.803141 -286.642781 95.935331 131 117 115 
212.288312 -293.233904 82.488481 139 134 130 
208.044814 -289.634182 75.362214 18 10 10 
211.952318 -291.408821 86.798078 179 158 158 
207.240183 -289.192547 72.626548 84 78 76 
214.228497 -291.053972 93.198635 38 27 25 
214.872053 -292.141699 91.871878 158 143 141 
181.893124 -241.031670 110.955671 14 14 12 
206.727922 -286.795790 71.253139 21 15 16 
213.905193 -294.132473 79.339630 16 11 11 
209.465324 -290.149647 71.624531 125 120 119 
214.731422 -289.153074 96.780239 28 10 7 
208.202459 -307.736432 2.030078 162 150 150 
208.202459 -307.736432 2.030078 162 150 150 
220.275294 -292.816933 96.605314 21 18 17 
218.080441 -286.608165 104.004629 124 16 5 
199.633016 -278.428710 44.608312 6 0 0 
207.133343 -301.654421 1.477182 167 157 159 
214.533173 -288.107938 80.244676 126 123 122 
219.394225 -289.328745 96.863889 19 16 17 
68.626053 -100.729424 27.579059 162 152 152 
215.836308 -310.923794 1.604045 163 151 151 
225.767628 -287.758152 114.284531 109 34 21 
226.575443 -286.739916 121.051611 79 12 7 
229.278449 -288.883232 116.957960 198 180 171 
228.152420 -284.705521 124.082664 95 51 41 
227.246363 -281.353491 128.940469 133 143 112 
227.246363 -281.353491 128.940469 133 143 112 
230.162694 -290.243042 112.108220 173 161 161 
230.491928 -286.815090 125.267979 117 60 47 
222.401966 -309.723044 2.617804 38 28 28 
230.896468 -286.971530 119.804385 199 182 169 
4.789019 -0.763304 1.514466 32 24 26 
214.241773 -296.893903 0.485019 16 8 5 
214.241773 -296.893903 0.485019 16 8 5 
232.778040 -288.546346 118.105191 97 24 23 
217.880310 -294.573906 14.070062 140 132 144 
220.584872 -295.122245 21.377330 16 5 9 
230.876261 -286.149426 103.734904 11 6 5 
220.742738 -295.835280 16.436412 12 9 26 
189.471036 -225.876335 106.433835 8 46 0 
219.858293 -293.917475 16.579425 141 135 143 
221.229007 -297.193317 10.019658 13 6 6 
221.229007 -297.193317 10.019658 13 6 6 
207.849830 -272.250298 30.133214 140 129 138 
221.857703 -296.082870 15.808086 23 22 40 
223.509625 -302.449150 0.677592 160 152 152 
226.425995 -289.993516 58.209620 120 111 122 
239.870743 -291.896989 119.793777 155 142 141 
223.685682 -296.164779 20.719760 31 22 31 
227.404093 -274.032532 117.906648 55 10 0 
237.082579 -286.329770 118.966655 175 152 143 
224.670065 -294.775832 23.067465 33 20 24 
224.670065 -294.775832 23.067465 33 20 24 
224.670065 -294.775832 23.067465 33 20 24 
223.503503 -293.411585 18.045520 125 114 123 
224.404843 -295.604607 14.693833 132 123 135 
223.765749 -290.258925 27.394883 15 7 7 
196.099848 -228.410756 107.650873 8 5 1 
220.462068 -289.406427 11.640525 141 130 140 
220.462068 -289.406427 11.640525 141 130 140 
226.221007 -293.003833 28.699025 133 120 123 
225.923916 -297.061241 11.792047 4 0 0 
225.459838 -294.788762 15.714491 38 30 38 
224.299589 -291.764576 19.660066 140 128 130 
225.237718 -292.742551 18.195466 29 19 26 
225.237718 -292.742551 18.195466 29 19 26 
225.731917 -293.321759 16.305061 136 123 133 
225.731917 -293.321759 16.305061 136 123 133 
228.050019 -293.257502 17.766730 17 4 13 
228.303795 -294.227951 13.214857 14 6 6 
261.050954 -344.872545 0.234200 164 152 154 
228.138444 -293.881071 11.054748 11 3 3 
227.816510 -290.089433 16.390197 106 96 104 
227.369194 -288.596262 19.165053 51 40 44 
228.709558 -291.708475 13.702626 15 4 8 
223.660107 -255.255379 106.042675 166 149 164 
223.660107 -255.255379 106.042675 166 149 164 
217.800484 -249.750625 89.119502 12 5 20 
211.622525 -234.818274 109.821728 58 53 52 
186.049270 -201.860965 89.137975 13 10 9 
236.367843 -293.916254 14.702918 8 4 0 
215.810777 -240.888789 94.888038 124 155 106 
218.155009 -244.086356 94.965000 148 144 146 
217.124143 -241.979140 94.941249 80 91 65 
220.620815 -244.859356 101.248870 56 77 43 
212.810591 -229.738218 105.464700 50 45 44 
298.345077 -379.362867 6.048527 43 32 29 
305.489032 -386.724680 3.861179 170 158 158 
305.489032 -386.724680 3.861179 170 158 158 
236.448683 -281.548440 4.489887 19 11 13 
218.054891 -226.028394 76.904885 19 8 12 
314.638926 -387.639917 4.843903 40 31 30 
220.409599 -223.313803 87.395142 165 156 158 
208.861024 -208.419796 44.526085 151 143 145 
313.923402 -379.395855 3.145926 40 31 28 
84.884158 -22.531818 1.840482 39 29 29 
84.884158 -22.531818 1.840482 39 29 29 
325.577601 -395.614126 3.190448 41 32 29 
212.677177 -205.481924 58.614048 165 155 157 
196.648562 -186.486333 5.277787 123 119 120 
196.648562 -186.486333 5.277787 123 119 120 
197.102913 -184.713246 11.033556 28 20 22 
197.102913 -184.713246 11.033556 28 20 22 
