ply
format ascii 1.0
element vertex 1116
property float x
property float y
property float z
property uchar red
property uchar green
property uchar blue
end_header
291.651236 -2.522657 1.883539 44 29 22 
141.058298 -254.271478 5.648762 162 141 135 
191.821244 -179.494467 5.188406 40 26 19 
199.704780 -168.655136 0.247983 160 141 138 
195.669216 -184.249431 3.387852 152 138 131 
195.669216 -184.249431 3.387852 152 138 131 
197.767395 -189.396497 5.472918 158 139 133 
197.748596 -201.610815 3.295155 146 124 121 
88.990490 -383.430025 0.962736 44 31 27 
165.413560 -279.190784 3.523305 56 41 42 
107.483130 -384.578652 3.221847 161 146 142 
106.037618 -389.717706 1.161977 162 144 141 
184.467485 -272.898881 144.675391 120 105 101 
193.742805 -263.142384 145.968375 64 49 45 
192.585207 -265.753350 144.675090 41 34 29 
191.224825 -318.910677 2.943373 20 15 16 
194.496286 -268.615299 146.482604 126 117 112 
194.496286 -268.615299 146.482604 126 117 112 
158.751285 -382.865111 2.800676 159 141 138 
222.122834 -295.807207 10.995607 45 30 28 
208.371611 -279.371108 144.873687 14 6 1 
213.146357 -348.955236 6.081529 158 140 137 
213.146357 -348.955236 6.081529 158 140 137 
192.962561 -391.927503 2.465185 39 26 22 
209.927407 -378.668864 7.109670 44 31 27 
252.215253 -337.436160 1.802733 158 141 135 
252.215253 -337.436160 1.802733 158 141 135 
2.955209 -0.565262 6.191359 40 21 20 
1.516183 -15.983996 8.178457 159 137 134 
1.516183 -15.983996 8.178457 159 137 134 
16.369325 -17.976280 4.214525 36 26 21 
16.369325 -17.976280 4.214525 36 26 21 
0.042825 -91.568702 7.691223 157 137 132 
0.042825 -91.568702 7.691223 157 137 132 
4.587362 -98.641099 7.795540 157 136 130 
1.670821 -106.774607 6.935266 157 138 132 
1.392624 -120.334795 4.907093 40 31 26 
8.855141 -108.071555 7.515131 40 26 19 
12.354376 -100.558720 6.790740 154 136 129 
10.722221 -115.424952 5.948306 155 137 131 
18.352393 -102.489003 5.144332 34 22 22 
1.949764 -199.862268 3.330102 46 31 27 
91.277948 -15.867183 4.590784 156 138 135 
91.277948 -15.867183 4.590784 156 138 135 
10.790841 -188.279637 5.115096 160 138 135 
97.413676 -9.434042 5.859698 41 26 22 
97.413676 -9.434042 5.859698 41 26 22 
2.241660 -213.899464 5.850691 155 138 132 
2.241660 -213.899464 5.850691 155 138 132 
100.409624 -8.967199 3.643852 37 24 20 
11.205484 -204.408706 4.866139 164 142 139 
18.493713 -195.417772 5.697102 43 28 24 
109.872299 -7.132247 3.390520 40 22 19 
109.872299 -7.132247 3.390520 40 22 19 
122.536767 -18.164667 2.985633 34 23 20 
127.467777 -21.633345 1.341458 39 24 20 
90.900541 -96.000079 5.520883 154 136 133 
105.013828 -87.835459 4.487030 40 27 23 
103.690265 -101.259550 3.309075 117 99 96 
103.690265 -101.259550 3.309075 117 99 96 
100.312943 -110.108366 4.027351 151 136 132 
100.312943 -110.108366 4.027351 151 136 132 
6.025432 -300.333416 7.891478 48 35 31 
108.343097 -105.834548 5.143254 45 30 26 
116.837373 -93.850290 4.057997 154 136 133 
110.459874 -111.968819 2.106057 163 143 140 
10.522630 -303.090551 4.252615 160 142 139 
113.710757 -113.911291 5.552712 37 22 18 
121.667713 -113.894804 3.345105 41 26 22 
121.667713 -113.894804 3.345105 41 26 22 
84.968566 -183.551792 4.749961 41 31 26 
110.315682 -136.784136 3.418642 118 97 91 
89.722297 -194.781777 3.296325 159 141 138 
191.045449 -10.055145 10.104553 32 19 15 
97.715044 -187.795035 5.647610 159 141 138 
97.715044 -187.795035 5.647610 159 141 138 
194.120630 -18.924273 10.389572 151 136 132 
194.120630 -18.924273 10.389572 151 136 132 
96.788978 -197.361773 6.603152 45 26 24 
207.833413 -1.248195 0.695811 50 35 31 
207.833413 -1.248195 0.695811 50 35 31 
100.227142 -202.112368 3.043263 162 139 138 
100.227142 -202.112368 3.043263 162 139 138 
0.398032 -386.710972 3.961011 158 141 135 
6.207993 -387.299171 4.998862 38 25 21 
224.096817 -16.160121 3.540387 39 28 25 
13.422254 -385.344931 2.709665 44 31 27 
122.897904 -200.537439 2.219201 46 32 25 
191.853213 -82.274812 6.917829 36 17 11 
191.853213 -82.274812 6.917829 36 17 11 
210.313316 -52.081476 5.027115 159 138 132 
210.313316 -52.081476 5.027115 159 138 132 
192.947527 -89.168502 7.500970 154 135 129 
203.590915 -99.089585 5.393374 161 140 134 
89.901426 -295.964629 3.521510 160 145 141 
201.639927 -111.808775 3.641611 31 14 8 
214.183069 -92.604838 4.102285 161 140 134 
99.492237 -292.166029 1.373471 50 35 31 
213.363109 -111.597180 0.282271 157 140 134 
99.011926 -300.956452 0.980180 46 31 27 
143.689003 -251.152691 1.545168 162 141 135 
192.933084 -178.460593 3.834253 41 27 20 
198.781695 -170.755791 3.166506 163 141 138 
295.008034 -21.825112 1.771295 42 30 23 
195.713848 -184.688342 3.648117 153 139 132 
195.713848 -184.688342 3.648117 153 139 132 
144.849080 -291.270537 1.703488 166 148 145 
88.779017 -383.599905 1.146192 45 32 28 
100.344506 -387.789205 3.697600 39 24 20 
100.344506 -387.789205 3.697600 39 24 20 
185.055313 -304.490517 1.914472 62 56 59 
192.221628 -318.057405 1.554207 21 16 17 
192.221628 -318.057405 1.554207 21 16 17 
193.210276 -374.893734 1.642720 44 29 25 
193.210276 -374.893734 1.642720 44 29 25 
212.698905 -349.314376 6.877052 158 140 137 
212.698905 -349.314376 6.877052 158 140 137 
199.364718 -381.492582 1.228192 156 138 135 
193.562703 -391.479901 1.716760 39 26 22 
204.935425 -384.697028 4.658110 45 27 24 
211.077603 -377.879148 5.699366 44 31 27 
205.301134 -396.163436 3.563318 31 14 8 
208.402777 -399.642852 3.677550 45 32 25 
208.402777 -399.642852 3.677550 45 32 25 
0.424024 -8.080771 5.930141 153 134 131 
2.377092 -14.066221 6.342310 159 137 134 
17.377867 -15.623777 2.167762 35 26 21 
0.484986 -91.567537 7.564744 154 134 131 
0.484986 -91.567537 7.564744 154 134 131 
5.846640 -95.788848 4.756488 157 136 130 
2.828532 -104.621289 4.801408 161 140 134 
2.732352 -117.242108 1.934676 40 30 25 
9.473924 -107.819238 7.012750 45 28 22 
20.011567 -81.090172 2.725846 33 23 20 
13.283283 -106.524052 2.690938 31 17 10 
11.691965 -113.640078 4.062554 157 136 130 
19.277230 -100.865873 3.307029 36 22 20 
45.454529 -51.572162 9.122569 153 132 126 
45.454529 -51.572162 9.122569 153 132 126 
45.454529 -51.572162 9.122569 153 132 126 
3.269243 -180.630051 3.920800 37 26 23 
11.578332 -186.827969 3.623058 159 137 134 
82.521538 -23.802466 5.451956 43 26 20 
92.806168 -1.796369 3.059115 154 137 131 
92.806168 -1.796369 3.059115 154 137 131 
12.046144 -193.709159 1.973145 46 31 27 
12.046144 -193.709159 1.973145 46 31 27 
89.006344 -21.834954 9.418989 154 135 132 
89.006344 -21.834954 9.418989 154 135 132 
12.228373 -202.987180 3.297823 160 138 135 
20.277929 -191.642537 1.704488 42 27 23 
98.876689 -21.235974 2.712892 38 25 21 
105.178608 -22.372002 8.787395 161 141 138 
105.178608 -22.372002 8.787395 161 141 138 
47.358143 -157.085927 10.249761 156 135 129 
47.358143 -157.085927 10.249761 156 135 129 
83.511861 -85.371672 4.922139 40 27 24 
83.511861 -85.371672 4.922139 40 27 24 
122.253335 -18.570723 3.284752 37 26 22 
122.253335 -18.570723 3.284752 37 26 22 
92.069904 -93.064513 3.046665 154 136 133 
85.490731 -119.180949 7.094513 39 29 24 
105.208096 -87.284797 3.810861 36 26 21 
6.674041 -299.576223 7.000829 43 28 24 
6.674041 -299.576223 7.000829 43 28 24 
101.640606 -105.142062 7.401007 86 69 66 
101.640606 -105.142062 7.401007 86 69 66 
100.784370 -108.887196 2.993098 157 142 138 
100.784370 -108.887196 2.993098 157 142 138 
107.531225 -107.698814 7.134270 42 24 21 
117.723863 -91.710186 2.054245 153 135 132 
17.561943 -316.840991 0.691982 40 30 25 
17.561943 -316.840991 0.691982 40 30 25 
86.750184 -180.249194 1.139620 42 28 26 
121.635635 -113.542515 3.301030 41 28 24 
121.635635 -113.542515 3.301030 41 28 24 
89.325144 -195.862809 4.450876 161 143 140 
98.368730 -186.698132 4.481847 156 138 135 
1.646167 -385.276727 1.777769 158 141 135 
1.646167 -385.276727 1.777769 158 141 135 
97.541775 -196.142037 5.197154 48 30 27 
97.541775 -196.142037 5.197154 48 30 27 
14.584473 -384.136531 0.844930 44 31 27 
14.584473 -384.136531 0.844930 44 31 27 
115.037460 -195.068749 4.156421 159 144 140 
115.037460 -195.068749 4.156421 159 144 140 
115.849084 -209.796513 2.473026 159 141 140 
225.351504 -13.097724 1.436541 40 26 24 
225.351504 -13.097724 1.436541 40 26 24 
190.071485 -84.836497 9.409107 36 17 11 
82.447107 -287.959540 7.420371 43 30 26 
209.714528 -51.598149 4.792766 157 138 132 
209.714528 -51.598149 4.792766 157 138 132 
124.202768 -215.918960 1.177055 46 28 25 
202.855156 -99.582607 5.835770 162 141 135 
197.656448 -109.276572 5.951589 160 141 135 
195.098704 -116.858203 6.170141 163 144 138 
199.958281 -114.000849 5.850594 26 9 3 
86.856695 -317.095814 11.312417 157 142 138 
86.856695 -317.095814 11.312417 157 142 138 
99.044356 -300.505945 0.884051 45 30 26 
106.959305 -292.233796 2.689457 162 144 141 
228.915807 -79.433627 0.570194 49 31 28 
228.915807 -79.433627 0.570194 49 31 28 
212.113185 -112.835288 1.699584 160 143 137 
144.101304 -249.731688 0.429281 162 140 137 
292.664587 -1.053666 0.466983 41 27 20 
189.724348 -182.872100 8.751373 36 25 18 
296.554548 -8.855010 2.198530 160 141 135 
199.044485 -187.723415 3.457475 158 139 133 
89.476670 -383.186816 0.234443 42 32 27 
197.704086 -201.930446 3.771380 150 128 125 
146.090261 -289.594536 0.072311 166 148 145 
191.519104 -218.024921 7.750622 41 28 24 
163.642895 -281.596769 7.062644 52 37 38 
106.688795 -385.848926 5.418582 159 144 140 
106.688795 -385.848926 5.418582 159 144 140 
105.689550 -390.346573 2.694073 161 143 140 
190.311372 -320.171711 4.857794 24 16 17 
158.586043 -382.780260 4.243473 159 141 138 
158.586043 -382.780260 4.243473 159 141 138 
221.787512 -296.099174 12.306478 44 30 28 
215.174696 -346.685797 2.250934 158 140 137 
323.219489 -202.811255 1.993514 29 15 13 
191.745073 -393.215998 4.579437 39 25 21 
209.683163 -379.052086 7.561710 44 31 27 
312.883538 -302.902170 1.358240 146 132 125 
312.883538 -302.902170 1.358240 146 132 125 
1.898696 -3.657132 9.069541 42 22 19 
1.898696 -3.657132 9.069541 42 22 19 
0.356208 -20.270539 12.073043 158 136 133 
0.356208 -20.270539 12.073043 158 136 133 
3.974098 -20.359847 7.484288 159 139 136 
3.974098 -20.359847 7.484288 159 139 136 
10.737573 -16.634282 11.720800 158 139 136 
15.232428 -22.095054 8.196944 35 26 21 
15.232428 -22.095054 8.196944 35 26 21 
3.576599 -102.200996 11.206078 157 136 130 
0.318308 -123.741033 8.527434 41 31 26 
18.587372 -84.598108 6.358819 31 24 21 
7.796942 -112.226443 11.555562 46 30 24 
9.801683 -118.737588 9.325965 156 136 130 
17.328870 -106.241230 8.459857 37 23 21 
1.074091 -186.604237 10.794429 37 26 23 
81.084693 -27.763088 9.077615 45 28 22 
9.933906 -190.741243 8.060861 159 137 134 
90.942733 -7.217191 7.664813 154 137 131 
1.710715 -215.283724 7.579605 158 141 135 
1.710715 -215.283724 7.579605 158 141 135 
89.788481 -20.323831 8.348100 151 134 131 
18.982258 -181.099236 5.439080 40 28 23 
18.982258 -181.099236 5.439080 40 28 23 
98.044159 -16.352650 9.595123 37 24 20 
18.003970 -197.208520 8.073927 41 26 22 
109.277190 -8.634063 4.759027 42 24 21 
109.277190 -8.634063 4.759027 42 24 21 
16.318441 -216.970162 5.222751 39 29 24 
16.318441 -216.970162 5.222751 39 29 24 
103.114967 -58.237413 7.390372 156 135 129 
121.500768 -21.220075 5.581914 37 26 23 
121.500768 -21.220075 5.581914 37 26 23 
90.858967 -96.181763 6.149531 154 136 133 
84.650758 -121.499768 9.388540 39 29 24 
103.694439 -91.397246 7.604912 36 26 21 
5.409454 -302.006338 10.347975 44 29 25 
102.887627 -103.101490 5.116660 82 64 61 
3.418009 -309.865612 6.937218 161 143 140 
99.666048 -111.817333 5.865032 156 141 137 
106.514406 -110.594074 9.775476 42 24 21 
116.053351 -96.202375 6.122852 154 136 133 
109.404537 -114.642908 4.750935 159 140 137 
109.404537 -114.642908 4.750935 159 140 137 
155.254888 -33.283312 0.597821 158 137 131 
155.254888 -33.283312 0.597821 158 137 131 
15.513910 -320.453429 5.709118 40 30 25 
83.058709 -188.019686 9.667890 42 28 26 
83.058709 -188.019686 9.667890 42 28 26 
88.067981 -198.675614 7.545528 161 143 140 
96.466961 -190.854235 9.020527 156 138 135 
79.968312 -223.240064 10.591680 48 29 28 
79.968312 -223.240064 10.591680 48 29 28 
189.692439 -13.552836 12.868546 44 30 26 
95.862744 -199.723359 9.136314 46 28 25 
95.862744 -199.723359 9.136314 46 28 25 
187.780331 -23.051102 12.284195 21 3 2 
106.225218 -194.883670 2.609317 49 31 28 
213.352443 -10.303831 2.344211 153 135 132 
124.420733 -177.454314 0.149186 43 27 25 
124.420733 -177.454314 0.149186 43 27 25 
12.185383 -387.954757 7.106200 44 31 27 
104.902067 -219.794112 5.212827 43 31 28 
114.246637 -214.008424 5.955096 159 140 139 
224.171280 -16.481053 3.896254 39 25 23 
189.743983 -86.633507 10.790737 37 18 12 
211.990401 -48.922257 2.047179 157 138 132 
48.821021 -356.342164 7.764780 156 138 135 
80.860854 -308.558651 7.598901 45 30 26 
97.194945 -283.519381 2.154103 45 32 28 
202.202879 -101.887632 7.776006 162 141 135 
97.796275 -295.483514 5.533275 48 33 29 
86.945236 -317.287171 11.342172 156 141 137 
97.913654 -302.832543 3.878826 45 30 26 
213.069568 -112.583196 0.999638 160 143 137 
222.254972 -103.610437 0.481254 161 144 138 
142.070694 -254.819936 5.331749 162 140 137 
293.161746 -2.106511 0.644252 42 28 21 
190.750679 -182.404440 7.827992 37 25 18 
116.282744 -310.982580 1.059910 159 144 140 
116.282744 -310.982580 1.059910 159 144 140 
197.992128 -183.053585 1.093984 151 135 129 
204.241517 -193.088004 2.575238 47 25 22 
144.783988 -291.933729 2.859631 166 148 145 
87.548218 -385.658626 4.576118 42 32 27 
158.051270 -282.042626 0.508420 168 150 147 
164.685709 -280.747311 5.703671 52 37 38 
95.784063 -396.336920 7.908358 158 142 139 
95.784063 -396.336920 7.908358 158 142 139 
106.761483 -385.983499 5.471657 158 143 139 
104.948576 -391.293559 4.397444 161 143 140 
111.872957 -398.142632 10.392645 44 29 25 
195.487014 -312.455018 3.816741 106 101 102 
190.560142 -320.467352 4.999451 24 16 16 
214.503036 -300.574003 0.115023 29 19 18 
214.503036 -300.574003 0.115023 29 19 18 
214.503036 -300.574003 0.115023 29 19 18 
212.570761 -349.221634 6.241371 158 140 137 
192.219763 -383.084451 0.177010 43 25 22 
193.039048 -392.247246 2.757584 39 25 21 
200.573991 -389.556763 0.337115 42 28 24 
204.999593 -384.896446 5.699430 48 30 27 
260.199890 -360.895394 12.110519 156 139 133 
2.339974 -3.011875 8.311706 43 23 20 
1.041506 -18.549095 10.435944 159 137 134 
1.041506 -18.549095 10.435944 159 137 134 
4.569922 -99.531886 8.511848 157 136 130 
1.306842 -108.915097 9.238524 158 138 132 
1.191626 -121.919964 6.541687 41 31 26 
8.542195 -110.520770 9.757845 44 27 21 
10.303410 -117.694745 8.189353 156 136 130 
18.001185 -104.468679 6.836987 36 22 20 
9.177978 -124.849050 6.601758 41 26 22 
10.366437 -189.881067 7.040405 158 137 134 
90.385260 -18.819988 6.998070 151 135 131 
90.385260 -18.819988 6.998070 151 135 131 
2.342593 -213.789181 5.733494 158 141 136 
2.342593 -213.789181 5.733494 158 141 136 
19.296312 -180.554549 4.817029 39 28 23 
98.912618 -14.167097 7.661916 37 24 20 
109.764569 -7.291718 3.619852 36 18 15 
109.764569 -7.291718 3.619852 36 18 15 
105.981475 -21.124243 7.790280 159 140 137 
16.546758 -216.901832 5.129936 39 29 24 
16.546758 -216.901832 5.129936 39 29 24 
49.210093 -153.982652 6.046591 156 135 129 
91.299565 -94.984465 5.116484 154 136 133 
85.633605 -119.262847 7.185197 39 29 24 
94.922658 -101.745732 0.896853 48 30 27 
104.612437 -89.082662 5.509084 37 26 21 
103.306718 -103.175951 5.236311 92 76 72 
100.105581 -110.868557 4.878801 157 142 138 
100.105581 -110.868557 4.878801 157 142 138 
3.991771 -308.856338 5.349213 160 142 139 
107.501765 -108.360544 7.701241 41 23 20 
116.766842 -94.302622 4.471172 152 134 131 
125.654068 -81.817900 2.908822 41 26 24 
110.312690 -112.762730 2.977483 162 144 141 
110.312690 -112.762730 2.977483 162 144 141 
121.454727 -114.482606 4.171600 41 28 24 
121.454727 -114.482606 4.171600 41 28 24 
84.153906 -185.869036 7.473906 42 28 26 
89.194393 -196.335482 5.005938 160 142 139 
190.925726 -10.083303 17.657522 155 134 133 
97.301272 -189.293532 7.332494 156 138 135 
97.301272 -189.293532 7.332494 156 138 135 
96.662194 -197.911179 7.166802 47 29 26 
96.662194 -197.911179 7.166802 47 29 26 
206.273516 -3.754324 2.835200 40 25 21 
206.273516 -3.754324 2.835200 40 25 21 
0.623938 -386.867242 4.125404 159 142 136 
0.623938 -386.867242 4.125404 159 142 136 
13.561491 -385.861371 3.214686 44 31 27 
115.242340 -212.016779 3.739055 160 141 140 
209.930445 -51.946720 4.964474 157 138 132 
209.930445 -51.946720 4.964474 157 138 132 
202.858539 -100.178654 6.391304 162 141 135 
197.683470 -113.144767 2.463695 163 144 138 
197.683470 -113.144767 2.463695 163 144 138 
214.018960 -93.484427 5.111919 158 139 133 
88.275310 -315.186761 8.336129 157 142 138 
144.256820 -250.343657 1.255887 162 140 137 
195.640596 -185.626512 4.378871 151 135 129 
195.640596 -185.626512 4.378871 151 135 129 
88.363137 -384.547679 2.513277 42 32 27 
88.363137 -384.547679 2.513277 42 32 27 
167.700829 -276.384594 0.344582 52 37 38 
107.438263 -385.022861 3.896061 158 143 139 
105.612865 -390.559574 2.654936 161 143 140 
196.469078 -310.954005 1.938039 106 101 102 
191.638371 -318.957712 3.005332 24 16 17 
159.968516 -381.415582 1.586481 159 141 138 
159.968516 -381.415582 1.586481 159 141 138 
223.510437 -294.192173 9.659383 45 30 28 
212.842486 -348.751729 5.726930 158 140 137 
209.864548 -379.052226 7.574415 44 31 27 
1.023325 -9.511406 13.824794 34 21 17 
0.571227 -20.948306 12.368729 159 137 134 
0.571227 -20.948306 12.368729 159 137 134 
9.148230 -1.796720 11.909996 154 135 131 
15.105810 -24.129617 9.790021 38 25 20 
15.105810 -24.129617 9.790021 38 25 20 
3.929533 -102.159554 10.902017 155 136 130 
0.646204 -111.540909 11.637366 157 138 132 
0.317520 -125.718313 10.365958 40 30 25 
3.590750 -117.955376 9.961468 43 25 22 
9.089054 -107.993479 7.271949 48 31 25 
11.372979 -105.585276 11.442995 151 132 126 
11.372979 -105.585276 11.442995 151 132 126 
18.165891 -87.370320 8.421250 35 26 23 
10.253243 -118.540327 8.836957 154 135 129 
9.270969 -125.325872 6.850960 36 28 23 
16.466256 -110.686649 12.525234 40 24 22 
1.853262 -184.957608 8.297499 40 29 26 
1.429808 -202.737968 6.594381 39 27 23 
1.429808 -202.737968 6.594381 39 27 23 
10.837388 -188.614891 5.479148 155 135 132 
1.754584 -216.787681 8.967246 159 141 136 
1.754584 -216.787681 8.967246 159 141 136 
9.721043 -200.634961 9.682424 45 30 26 
9.721043 -200.634961 9.682424 45 30 26 
92.194839 -4.341008 5.170829 156 139 133 
10.822592 -206.742167 7.438508 158 136 133 
90.679523 -18.430521 6.866131 151 136 132 
90.679523 -18.430521 6.866131 151 136 132 
97.750706 -9.342881 5.724375 31 15 11 
97.750706 -9.342881 5.724375 31 15 11 
17.561888 -200.165218 10.845429 43 28 24 
101.474424 -6.494498 1.507076 37 22 18 
97.378653 -26.701145 7.555547 39 24 20 
16.307240 -218.012569 6.277309 39 29 24 
16.307240 -218.012569 6.277309 39 29 24 
108.702171 -10.995586 6.630440 38 20 17 
107.142674 -18.721306 5.721702 154 134 131 
107.142674 -18.721306 5.721702 154 134 131 
46.393402 -163.232058 14.935596 156 135 129 
46.393402 -163.232058 14.935596 156 135 129 
83.580214 -85.892466 5.378979 41 27 25 
121.365245 -22.570901 6.613302 37 27 22 
121.365245 -22.570901 6.613302 37 27 22 
91.530385 -95.134925 4.884070 155 137 134 
81.042190 -126.432042 7.964748 40 24 22 
85.829980 -119.090289 7.002778 37 27 22 
6.233855 -300.375517 7.629966 48 33 29 
6.233855 -300.375517 7.629966 48 33 29 
104.512063 -90.141470 6.218964 37 27 22 
3.948430 -313.405489 10.935552 160 142 139 
104.846211 -99.657650 1.408512 111 96 92 
104.846211 -99.657650 1.408512 111 96 92 
100.528286 -110.455176 4.339948 157 142 138 
100.528286 -110.455176 4.339948 157 142 138 
109.487994 -104.259689 3.714957 44 26 23 
116.777205 -94.904128 5.067393 155 137 134 
111.131868 -111.666405 1.640513 157 137 134 
111.131868 -111.666405 1.640513 157 137 134 
125.581525 -82.918097 3.577076 41 29 23 
109.110872 -118.442716 5.450530 174 156 153 
16.690520 -318.514172 2.982873 43 30 26 
16.690520 -318.514172 2.982873 43 30 26 
84.343960 -186.169550 7.095508 38 29 26 
84.343960 -186.169550 7.095508 38 29 26 
121.645568 -114.803388 4.291880 39 29 24 
86.179043 -195.950030 7.614047 152 139 135 
86.179043 -195.950030 7.614047 152 139 135 
88.718613 -198.229816 6.614509 160 142 139 
120.942339 -138.704272 15.849270 154 133 127 
96.641573 -191.080451 8.882283 159 141 138 
0.328930 -387.759388 5.646853 158 141 135 
0.328930 -387.759388 5.646853 158 141 135 
0.328930 -387.759388 5.646853 158 141 135 
97.116920 -197.770829 6.498808 46 28 25 
97.116920 -197.770829 6.498808 46 28 25 
190.801429 -11.522594 11.319727 38 23 19 
190.801429 -11.522594 11.319727 38 23 19 
196.804753 -14.079328 6.272697 151 131 128 
105.820948 -196.790750 4.176998 48 30 27 
13.310174 -386.615565 4.760291 43 30 26 
204.146871 -9.838519 7.688878 36 23 19 
204.146871 -9.838519 7.688878 36 23 19 
213.398988 -10.660112 2.693002 158 140 137 
113.744664 -207.370465 7.557547 52 32 29 
114.717599 -212.598315 5.814980 161 142 141 
115.773036 -211.719520 2.914950 160 141 140 
123.110999 -200.962221 3.356110 43 29 22 
225.994354 -13.569886 1.780771 39 28 24 
225.994354 -13.569886 1.780771 39 28 24 
83.019185 -287.215343 5.604494 40 30 25 
192.122292 -93.196497 10.167653 157 138 132 
80.368864 -310.132878 9.142922 44 31 27 
204.289502 -98.638869 4.236964 161 142 136 
98.181064 -295.514571 5.251557 45 30 26 
90.192949 -311.845384 3.088747 156 141 137 
90.192949 -311.845384 3.088747 156 141 137 
107.698970 -280.995764 3.105084 46 28 25 
203.416421 -109.441790 0.883032 39 20 19 
203.416421 -109.441790 0.883032 39 20 19 
99.673294 -300.168838 0.090955 42 29 25 
106.866018 -293.253662 3.219681 164 146 143 
213.813041 -111.736811 0.116300 158 141 135 
213.813041 -111.736811 0.116300 158 141 135 
229.060817 -92.542773 0.512611 45 30 26 
139.128190 -259.683047 11.107824 162 141 135 
194.263249 -176.887124 1.663339 40 26 19 
196.738446 -175.048810 7.692244 162 141 138 
81.705280 -379.335070 4.907164 45 31 29 
81.705280 -379.335070 4.907164 45 31 29 
123.937060 -317.365607 1.020725 44 31 27 
123.937060 -317.365607 1.020725 44 31 27 
200.616270 -186.269214 1.094762 158 139 133 
88.182961 -385.263324 2.795870 44 31 27 
88.182961 -385.263324 2.795870 44 31 27 
145.600487 -290.939171 1.328067 166 148 145 
162.793921 -278.009399 0.401656 165 145 147 
166.780200 -278.230865 1.614666 55 39 41 
167.968737 -278.095528 2.586087 38 22 27 
167.761859 -283.315345 6.734340 106 89 97 
108.249071 -384.153151 2.314337 158 143 139 
120.301367 -384.369947 4.659818 44 31 27 
191.553600 -262.920178 144.576531 23 7 6 
188.318702 -268.963701 147.358029 117 103 104 
188.318702 -268.963701 147.358029 117 103 104 
192.175004 -264.764846 145.627737 115 98 100 
187.410857 -273.224002 147.254060 17 11 12 
187.410857 -273.224002 147.254060 17 11 12 
195.670343 -261.128669 143.948911 56 41 38 
195.670343 -261.128669 143.948911 56 41 38 
191.093996 -267.925171 146.580910 17 6 8 
190.927075 -270.244770 147.436649 168 160 162 
193.640009 -267.259767 146.665087 151 136 137 
194.423128 -269.006919 146.870940 147 136 137 
194.423128 -269.006919 146.870940 147 136 137 
192.678296 -303.515502 15.017577 66 52 59 
187.067999 -281.919560 147.464191 18 8 4 
192.568926 -274.763612 147.472004 151 144 141 
196.352189 -270.615689 145.703674 149 143 138 
194.363074 -275.077793 147.672053 15 8 4 
194.515328 -277.965002 146.438169 35 29 26 
188.967323 -288.798598 152.984940 24 15 13 
195.167085 -281.473557 144.225420 91 82 79 
205.621485 -268.840222 145.576814 167 159 154 
199.676796 -278.010298 147.576075 150 139 136 
197.869267 -282.676196 145.462654 16 9 6 
212.798136 -296.324886 6.028912 144 129 132 
205.559482 -273.782003 145.484092 149 141 136 
202.651680 -282.613628 146.134872 8 10 3 
206.841314 -276.285892 146.280565 157 151 146 
210.309764 -271.994343 143.696256 37 28 23 
205.370493 -284.551322 145.033991 11 3 1 
223.128593 -295.075075 11.074978 43 29 27 
211.955967 -279.569802 145.754703 118 103 99 
214.467921 -347.708876 3.491953 158 140 137 
214.467921 -347.708876 3.491953 158 140 137 
194.162490 -391.154774 0.346916 37 27 22 
205.182031 -384.344407 2.885445 41 23 20 
205.182031 -384.344407 2.885445 41 23 20 
210.915568 -378.020302 5.422385 44 31 27 
1.108412 -9.117879 13.651757 32 19 15 
0.146724 -22.840651 14.027101 159 137 134 
0.146724 -22.840651 14.027101 159 137 134 
15.090090 -24.532814 10.224299 38 25 21 
15.090090 -24.532814 10.224299 38 25 21 
3.615094 -103.365447 12.178986 155 136 130 
0.569420 -124.978292 9.716199 40 30 25 
8.024786 -111.905774 11.147724 47 30 24 
12.523606 -105.418790 12.722514 160 143 137 
9.886825 -120.016330 10.399794 154 135 129 
1.213843 -186.965356 10.736717 40 29 26 
91.454531 -6.519356 7.206714 156 139 134 
2.282565 -215.318898 7.291263 158 141 137 
2.282565 -215.318898 7.291263 158 141 137 
9.886655 -199.988503 9.142010 46 31 27 
90.285563 -19.602273 7.989436 150 135 131 
90.285563 -19.602273 7.989436 150 135 131 
98.245938 -7.819129 4.641118 32 14 11 
98.245938 -7.819129 4.641118 32 14 11 
10.197948 -208.550621 9.600159 160 138 135 
100.341243 -9.335406 4.017181 37 22 18 
17.324371 -200.738904 11.408703 43 28 24 
109.273893 -9.742052 5.625576 39 21 18 
105.925532 -21.840191 8.441409 154 134 131 
101.916531 -61.945050 10.752235 157 136 130 
121.458202 -22.532071 6.680888 37 27 22 
121.458202 -22.532071 6.680888 37 27 22 
90.912344 -96.950742 6.595738 155 137 134 
1.119354 -298.153188 8.672310 159 144 140 
1.119354 -298.153188 8.672310 159 144 140 
2.639580 -313.060251 11.135154 160 142 139 
99.812193 -112.264454 6.107318 157 142 138 
9.835331 -305.917202 7.887050 156 141 137 
9.835331 -305.917202 7.887050 156 141 137 
105.799461 -110.207465 7.106019 49 31 28 
105.799461 -110.207465 7.106019 49 31 28 
107.926098 -107.602658 7.243370 45 27 24 
116.484825 -95.746292 5.873751 156 138 135 
125.472581 -83.300507 3.965358 42 29 23 
83.130021 -188.596358 9.803422 38 29 26 
83.130021 -188.596358 9.803422 38 29 26 
106.200067 -149.855646 2.748172 159 138 132 
88.358456 -198.972026 7.549329 159 141 138 
97.597273 -189.160524 6.796189 158 140 137 
97.597273 -189.160524 6.796189 158 140 137 
194.148964 -1.091420 9.048612 165 145 144 
190.092805 -13.105864 12.679560 38 23 19 
96.027361 -200.040076 9.108986 43 25 22 
96.027361 -200.040076 9.108986 43 25 22 
193.198118 -21.331709 12.370960 151 131 128 
106.556659 -195.198129 2.436257 48 30 27 
206.589426 -4.967191 3.624747 38 25 21 
206.589426 -4.967191 3.624747 38 25 21 
12.593706 -387.795746 6.806238 43 30 26 
124.405621 -177.871998 0.305003 44 28 26 
124.405621 -177.871998 0.305003 44 28 26 
105.805334 -218.726962 3.457750 43 29 27 
114.753840 -205.541544 5.513255 53 33 30 
114.773848 -212.579223 5.837144 158 139 138 
188.144882 -77.324322 5.802192 167 146 140 
115.118265 -212.899280 4.339738 160 141 140 
123.169694 -201.001070 3.226682 42 29 23 
224.490764 -16.624072 3.806669 37 27 22 
189.399063 -87.849782 11.631561 48 27 21 
189.399063 -87.849782 11.631561 48 27 21 
212.236897 -47.149315 0.527711 159 139 133 
123.150235 -218.616605 3.882289 47 29 26 
194.013197 -89.647647 6.924639 155 136 130 
49.599442 -354.847655 5.313215 156 138 135 
89.605726 -297.376501 4.881231 160 145 141 
97.391179 -284.026663 2.333491 44 31 27 
200.683518 -112.503529 0.326993 162 145 146 
97.941905 -295.794306 5.615627 45 30 26 
104.946609 -284.923244 1.845462 168 150 147 
214.246433 -94.212298 5.552678 161 141 138 
214.246433 -94.212298 5.552678 161 141 138 
98.313473 -302.277596 3.127100 42 29 25 
213.729526 -111.869329 0.266449 159 142 136 
143.493758 -251.642438 2.087394 162 141 135 
192.471390 -179.552199 4.661396 43 28 21 
145.273911 -291.392742 1.856982 166 148 145 
87.821907 -385.703842 3.982088 45 32 28 
166.482361 -278.968847 2.186782 69 54 57 
107.318957 -385.346727 4.358484 159 144 140 
105.366169 -391.055774 3.641669 160 142 139 
105.366169 -391.055774 3.641669 160 142 139 
196.329558 -311.505393 2.191569 102 98 99 
193.001250 -317.153158 0.162008 28 23 24 
193.001250 -317.153158 0.162008 28 23 24 
159.321325 -382.407801 2.442198 159 141 138 
223.600163 -294.478249 10.295965 43 29 27 
214.193044 -347.865615 3.811730 158 140 137 
214.193044 -347.865615 3.811730 158 140 137 
193.977179 -391.221793 0.822063 37 27 22 
209.118969 -379.907627 8.456077 44 31 27 
0.191344 -11.722105 16.375564 32 19 15 
8.197783 -14.070924 13.916302 160 139 136 
8.197783 -14.070924 13.916302 160 139 136 
14.364304 -26.587218 12.438926 38 25 21 
14.364304 -26.587218 12.438926 38 25 21 
3.014215 -104.475838 13.579414 155 136 130 
17.160920 -90.190088 11.591929 35 26 23 
9.239146 -121.153180 11.840836 154 135 129 
8.068390 -128.201078 10.232255 36 27 22 
16.730874 -109.101762 11.590226 39 24 21 
82.229178 -1.137496 12.721395 41 27 25 
82.229178 -1.137496 12.721395 41 27 25 
3.405379 -212.643172 11.522862 40 25 21 
3.405379 -212.643172 11.522862 40 25 21 
1.340944 -217.196027 9.659419 159 141 136 
1.340944 -217.196027 9.659419 159 141 136 
9.123124 -201.998934 11.357875 44 29 25 
17.831781 -185.464080 9.949325 42 29 25 
17.831781 -185.464080 9.949325 42 29 25 
89.917974 -21.201504 9.514279 150 135 131 
89.917974 -21.201504 9.514279 150 135 131 
9.814396 -209.081174 10.362272 160 138 135 
99.389538 -13.221983 7.262238 38 23 19 
15.313697 -221.009013 9.977010 39 29 24 
15.313697 -221.009013 9.977010 39 29 24 
107.865762 -14.191183 9.438427 38 20 17 
103.982817 -56.759291 6.188842 157 136 130 
90.482906 -98.515521 8.184132 156 138 135 
0.975884 -297.809682 8.110909 159 144 140 
0.975884 -297.809682 8.110909 159 144 140 
1.300139 -297.865747 8.731953 158 143 139 
85.461741 -120.539095 8.569134 37 27 22 
103.823617 -92.403218 8.518740 37 27 22 
99.444580 -113.722260 7.600997 157 142 138 
9.559052 -306.157365 8.295519 158 143 139 
108.360919 -107.295107 7.001616 44 26 23 
116.383986 -96.609641 6.737564 155 137 134 
109.705879 -115.594209 5.555511 157 137 134 
109.705879 -115.594209 5.555511 157 137 134 
124.691159 -85.816046 6.261055 45 31 24 
121.104532 -116.789125 6.237149 39 29 24 
105.369825 -152.631281 5.954977 159 138 132 
88.886192 -198.142807 6.748561 160 142 139 
94.441029 -193.284105 8.151099 164 149 145 
96.877527 -191.066220 8.962760 159 141 138 
96.877527 -191.066220 8.962760 159 141 138 
191.849171 -10.532638 10.274834 37 22 18 
96.565920 -199.357303 8.346013 44 26 23 
96.565920 -199.357303 8.346013 44 26 23 
105.852700 -197.093465 4.530340 48 30 27 
205.269853 -8.982302 6.640892 38 25 21 
117.473596 -186.345187 4.378873 161 145 141 
12.456264 -388.001859 6.716981 43 30 26 
113.235396 -199.335081 9.475504 156 141 137 
123.675513 -179.801327 2.432153 43 27 25 
105.516290 -219.685583 4.766593 43 29 27 
217.309971 -11.751285 0.116091 156 141 137 
115.022331 -213.605736 5.114453 160 141 140 
191.620523 -84.947759 8.663836 47 26 20 
49.057008 -355.500172 6.086286 156 138 135 
102.952717 -265.681275 17.722263 157 137 134 
97.538239 -283.969981 2.241764 44 31 27 
203.807284 -100.439071 5.789368 161 142 136 
192.871372 -120.530094 4.315896 41 19 21 
195.575068 -118.795157 7.407297 151 134 135 
200.449258 -113.768341 1.342298 165 148 149 
200.449258 -113.768341 1.342298 165 148 149 
103.790940 -287.220977 4.907890 163 145 142 
215.832630 -91.547879 2.134772 161 141 138 
98.643388 -302.226543 2.803041 42 29 25 
98.007971 -305.643673 10.701052 40 26 22 
98.007971 -305.643673 10.701052 40 26 22 
106.935084 -293.289313 3.463767 166 148 145 
145.758425 -291.178006 1.335979 166 148 145 
167.002000 -278.490378 1.783071 84 69 72 
165.459274 -282.860784 0.220192 120 108 110 
97.052136 -395.099027 5.408735 161 143 140 
97.052136 -395.099027 5.408735 161 143 140 
107.494527 -385.334827 4.328222 159 144 140 
105.476154 -391.313657 3.872553 160 142 139 
120.903396 -383.433191 3.706581 44 31 27 
186.553555 -274.124815 148.806440 15 10 11 
190.526153 -268.552940 147.891107 20 9 10 
190.897294 -270.036397 147.973940 182 173 175 
189.640580 -274.148086 147.667885 7 5 5 
190.844581 -273.847467 148.006417 140 135 135 
186.753761 -282.199229 148.454027 14 6 2 
194.389175 -274.828353 148.115178 18 10 7 
190.966582 -280.236317 147.950321 144 137 134 
190.445128 -282.168293 146.923242 114 106 102 
195.803456 -275.559148 147.683762 155 148 145 
204.405339 -267.094003 147.602629 26 19 11 
193.225177 -317.364697 0.407535 28 23 24 
202.098691 -278.151900 146.981069 145 136 133 
204.122325 -278.073604 146.004422 131 124 121 
204.122325 -278.073604 146.004422 131 124 121 
206.860258 -276.008594 146.635246 159 153 148 
200.837372 -290.912693 134.329836 186 173 169 
224.813559 -293.466249 8.858918 43 29 27 
214.713972 -347.203005 2.904791 158 140 137 
200.014332 -376.751562 2.324872 42 24 21 
210.179693 -398.352828 0.696193 42 30 23 
210.179693 -398.352828 0.696193 42 30 23 
0.084323 -10.979282 15.911838 32 19 15 
9.089794 -0.385163 11.513204 153 134 128 
7.748847 -15.681115 15.439901 155 135 132 
5.020643 -26.523864 16.650151 38 19 13 
13.845105 -28.385564 13.934544 37 24 19 
2.491955 -106.991229 15.554991 158 138 130 
2.241120 -118.902639 15.758201 160 141 135 
11.579782 -104.283061 10.487025 151 132 126 
11.579782 -104.283061 10.487025 151 132 126 
8.036676 -127.480001 17.675478 156 137 131 
8.495892 -197.067052 14.280063 156 136 133 
79.904456 -34.619967 15.038570 33 21 14 
90.942863 -9.626419 9.568661 159 141 138 
90.942863 -9.626419 9.568661 159 141 138 
1.342811 -217.926573 9.862862 157 139 136 
1.342811 -217.926573 9.862862 157 139 136 
90.407327 -20.423778 8.986455 149 134 130 
90.407327 -20.423778 8.986455 149 134 130 
9.175476 -212.237998 13.163014 163 141 138 
6.025581 -221.011800 11.673685 40 25 21 
100.157595 -12.090715 6.222510 34 23 19 
16.034934 -205.569581 16.436791 40 30 25 
97.442451 -28.377927 10.540089 41 31 26 
105.313642 -25.418874 11.583813 153 134 131 
105.313642 -25.418874 11.583813 153 134 131 
101.119163 -66.073997 14.304939 156 135 129 
101.119163 -66.073997 14.304939 156 135 129 
121.367385 -24.875535 8.690044 38 25 21 
121.367385 -24.875535 8.690044 38 25 21 
90.081382 -100.910327 10.013394 155 137 134 
124.418949 -32.236997 10.407378 38 22 20 
94.593903 -106.141766 5.431929 44 26 23 
104.484846 -92.110258 7.673242 39 29 24 
96.248856 -111.727352 10.306409 158 140 137 
96.248856 -111.727352 10.306409 158 140 137 
0.943301 -319.632314 19.457608 156 144 137 
98.913991 -116.481616 9.760354 156 141 137 
104.761132 -114.195474 10.109298 44 24 21 
104.761132 -114.195474 10.109298 44 24 21 
116.640728 -97.363253 6.958531 155 137 134 
109.570015 -117.510545 6.849956 159 140 137 
109.570015 -117.510545 6.849956 159 140 137 
14.342330 -325.528271 12.232052 43 30 26 
83.446516 -189.593070 10.221616 40 29 26 
83.446516 -189.593070 10.221616 40 29 26 
121.089735 -118.202560 7.158182 39 29 24 
102.445797 -161.456937 14.135124 157 138 132 
88.279347 -200.764658 8.681128 160 142 139 
79.718865 -226.296567 13.325574 45 31 28 
96.138096 -193.937982 11.280773 159 141 138 
96.138096 -193.937982 11.280773 159 141 138 
87.054075 -218.487508 9.984289 160 139 138 
87.054075 -218.487508 9.984289 160 139 138 
94.629006 -205.074116 14.008404 48 30 27 
94.629006 -205.074116 14.008404 48 30 27 
193.756734 -23.198260 13.399315 148 135 131 
193.756734 -23.198260 13.399315 148 135 131 
107.369628 -194.827036 1.319190 49 31 28 
208.834462 -2.772222 1.421042 43 28 24 
208.834462 -2.772222 1.421042 43 28 24 
100.394909 -213.683283 4.424419 160 138 135 
100.394909 -213.683283 4.424419 160 138 135 
11.457819 -391.526625 12.014314 43 30 26 
112.120093 -202.721396 13.041423 156 141 137 
17.244734 -383.373756 15.220060 42 31 28 
124.614148 -179.749146 1.282070 43 26 24 
124.614148 -179.749146 1.282070 43 26 24 
114.307847 -215.591399 8.538846 158 139 138 
114.774013 -215.549374 6.520602 161 140 139 
123.730142 -201.607657 3.287287 44 30 23 
191.984481 -84.811028 8.452360 42 25 19 
214.007068 -47.670346 0.054620 159 139 133 
81.550206 -291.689735 10.670003 41 30 27 
49.895320 -355.386626 5.119437 156 138 135 
107.275441 -254.721361 3.495808 160 138 135 
80.909857 -310.576044 8.787988 44 31 27 
88.121456 -301.932282 10.149758 158 143 139 
204.311548 -100.942603 5.389418 162 141 135 
79.944500 -325.562307 11.805727 47 30 27 
79.944500 -325.562307 11.805727 47 30 27 
96.764123 -299.642013 9.831919 43 28 24 
87.834545 -317.487891 10.146611 158 143 139 
87.834545 -317.487891 10.146611 158 143 139 
135.032355 -269.722888 22.085661 160 140 137 
192.155348 -182.553111 6.853862 41 28 21 
116.958345 -311.817105 1.005644 159 144 140 
196.813849 -184.472018 2.638914 151 134 128 
196.813849 -184.472018 2.638914 151 134 128 
200.729314 -188.077846 2.058496 157 138 132 
123.640003 -319.348052 2.465980 43 30 26 
87.054454 -388.261840 6.683805 44 31 27 
145.399068 -292.877576 3.316231 165 147 144 
167.634802 -278.563254 1.175620 78 66 68 
107.401566 -386.276580 5.091183 162 147 143 
192.285291 -253.234996 50.895811 74 62 66 
171.060628 -296.248449 9.132546 91 79 90 
113.111344 -397.515675 7.440924 47 32 28 
113.111344 -397.515675 7.440924 47 32 28 
184.678907 -280.713966 149.757891 16 6 2 
193.960666 -270.877742 148.337287 148 137 137 
325.575391 -95.993201 2.871799 34 19 17 
193.948660 -283.857262 147.416569 6 5 3 
203.848230 -279.711482 146.612462 112 105 105 
203.848230 -279.711482 146.612462 112 105 105 
205.342412 -279.824447 147.467671 17 11 7 
196.872224 -312.444706 2.460348 103 100 101 
193.403644 -318.022445 0.304294 24 17 19 
193.403644 -318.022445 0.304294 24 17 19 
201.972468 -286.867201 145.584587 13 2 6 
212.321744 -274.754524 144.848643 27 14 10 
206.556313 -284.146981 144.211742 10 2 4 
211.265567 -277.618127 148.067520 116 101 97 
226.021852 -292.659417 7.446491 42 29 25 
211.813300 -351.548401 8.536417 158 140 137 
211.813300 -351.548401 8.536417 158 140 137 
194.441162 -391.526838 0.411238 36 26 21 
210.388390 -379.158758 6.469893 44 31 27 
217.658373 -388.547551 0.060499 163 146 140 
217.658373 -388.547551 0.060499 163 146 140 
0.538952 -10.985367 15.765226 33 18 14 
8.436867 -15.066710 14.911478 155 135 132 
8.436867 -15.066710 14.911478 155 135 132 
14.558592 -27.109179 12.821226 36 24 19 
14.558592 -27.109179 12.821226 36 24 19 
2.982376 -105.844338 14.558683 158 138 130 
2.692007 -121.789062 13.777601 41 23 20 
7.805657 -113.566005 12.851949 45 28 22 
8.287563 -130.805889 12.509827 36 26 21 
0.814073 -205.955439 10.693819 42 30 26 
0.814073 -205.955439 10.693819 42 30 26 
9.357346 -194.600000 11.776134 156 136 133 
2.100941 -215.590414 7.394126 156 138 135 
2.100941 -215.590414 7.394126 156 138 135 
81.268654 -30.595220 11.705139 35 22 15 
9.423581 -202.491928 11.573456 48 33 29 
90.961719 -9.837278 9.780932 158 140 137 
90.961719 -9.837278 9.780932 158 140 137 
18.114670 -186.252766 10.274671 42 29 25 
18.114670 -186.252766 10.274671 42 29 25 
10.343829 -208.884201 9.564500 160 138 135 
89.999659 -21.889688 10.299519 148 133 129 
89.999659 -21.889688 10.299519 148 133 129 
97.058328 -13.076039 9.207462 37 20 17 
97.058328 -13.076039 9.207462 37 20 17 
17.566692 -201.002110 11.663086 40 30 25 
99.499101 -14.215075 8.025805 33 23 18 
98.002194 -26.734359 9.211226 41 31 26 
97.278430 -29.049560 9.999468 38 28 23 
15.555580 -221.074676 9.450617 38 29 24 
15.555580 -221.074676 9.450617 38 29 24 
108.042794 -14.678431 10.067500 40 21 18 
108.042794 -14.678431 10.067500 40 21 18 
105.447447 -25.063485 11.384523 153 134 131 
47.563657 -160.217987 12.625115 156 134 131 
47.563657 -160.217987 12.625115 156 134 131 
103.138325 -60.281935 9.346728 156 135 129 
103.138325 -60.281935 9.346728 156 135 129 
121.341685 -24.753840 8.561720 38 25 21 
121.341685 -24.753840 8.561720 38 25 21 
90.991581 -98.252381 7.857921 154 136 133 
1.778317 -298.524218 9.286810 158 143 139 
85.657019 -121.266211 9.047325 37 27 22 
85.657019 -121.266211 9.047325 37 27 22 
104.021871 -93.109220 8.822354 38 28 23 
2.093213 -318.724661 17.703536 156 144 137 
10.041668 -307.234244 9.436648 161 143 140 
99.389775 -115.218476 8.694519 156 141 137 
99.389775 -115.218476 8.694519 156 141 137 
107.563277 -110.679897 9.855060 41 23 20 
117.093223 -95.617066 5.811289 155 137 134 
109.650061 -116.918160 6.602575 160 140 137 
109.650061 -116.918160 6.602575 160 140 137 
125.310773 -85.016664 5.403974 36 26 21 
15.532652 -322.556638 8.295934 43 30 26 
15.532652 -322.556638 8.295934 43 30 26 
104.578903 -156.932898 9.554616 157 138 132 
88.765710 -199.188863 7.433582 160 142 139 
81.011981 -223.076416 10.085877 43 29 27 
95.925493 -194.243760 11.962036 159 141 138 
95.925493 -194.243760 11.962036 159 141 138 
96.676018 -200.117457 8.858393 51 32 31 
96.676018 -200.117457 8.858393 51 32 31 
191.404970 -12.102103 11.564886 35 26 21 
99.675543 -205.507153 6.854125 166 143 142 
105.978906 -197.555286 4.690679 49 31 28 
108.648644 -196.468574 6.607375 46 28 25 
12.755723 -388.319776 6.906780 43 30 26 
12.755723 -388.319776 6.906780 43 30 26 
113.836612 -198.715567 8.954803 156 141 137 
123.285951 -182.023337 4.163661 44 25 24 
123.285951 -182.023337 4.163661 44 25 24 
115.085791 -205.810705 5.402192 50 30 27 
115.085791 -205.810705 5.402192 50 30 27 
115.049678 -213.577250 6.679502 157 138 137 
114.930267 -214.764681 6.052833 161 140 139 
123.440250 -201.644558 3.653337 44 30 23 
224.690425 -18.044733 5.245363 37 26 23 
192.559001 -82.843791 7.081932 42 25 19 
192.559001 -82.843791 7.081932 42 25 19 
195.128919 -88.692918 6.137545 150 138 131 
105.927992 -257.583311 7.800483 159 137 134 
81.626339 -308.943032 6.866118 43 30 26 
97.337976 -285.501349 3.663565 45 32 28 
188.692170 -127.693607 7.244143 159 139 133 
203.321482 -101.918726 6.903467 161 142 136 
88.766192 -315.515467 7.660005 158 143 139 
88.766192 -315.515467 7.660005 158 143 139 
203.927718 -109.686566 0.968385 24 6 3 
203.927718 -109.686566 0.968385 24 6 3 
98.541238 -303.191182 3.781032 43 30 26 
208.923077 -105.237742 0.162765 160 146 139 
208.923077 -105.237742 0.162765 160 146 139 
107.276448 -293.582953 3.490859 167 149 146 
213.920387 -112.757719 0.654564 159 145 138 
101.002282 -355.374166 11.677198 159 141 138 
158.794157 -282.268063 1.335362 169 150 147 
163.491657 -277.928896 0.130686 168 147 146 
166.900297 -279.120142 2.287454 69 57 59 
101.016042 -388.972915 5.068984 42 27 23 
104.393860 -384.955121 5.956963 161 148 144 
104.393860 -384.955121 5.956963 161 148 144 
108.299629 -384.639588 2.592639 161 146 142 
170.871434 -295.925114 9.222502 91 80 91 
120.927459 -384.291567 3.851469 44 31 27 
188.006111 -270.146905 148.674109 107 97 97 
188.006111 -270.146905 148.674109 107 97 97 
186.480418 -275.090314 149.278397 17 11 12 
186.480418 -275.090314 149.278397 17 11 12 
181.724558 -300.401638 9.371394 61 50 59 
192.836127 -265.792762 148.640365 73 62 59 
189.836196 -270.516548 149.418077 23 18 19 
185.842376 -278.545382 148.103868 18 8 3 
192.523582 -268.230908 149.053421 9 6 6 
190.812552 -271.079300 148.499685 175 172 173 
190.660259 -272.834151 148.002915 5 4 4 
193.523624 -268.561560 148.065777 160 148 148 
193.047298 -269.481312 148.995545 173 161 161 
192.513512 -271.087717 148.826877 94 85 87 
190.684392 -274.848453 148.552436 164 159 160 
194.284438 -269.847127 147.820728 133 122 122 
187.587605 -281.056404 149.469929 93 85 80 
186.894946 -282.834382 148.571785 12 3 0 
192.330617 -275.679054 148.717616 153 148 147 
194.368988 -275.740095 148.511073 13 7 2 
191.559292 -288.988305 149.591280 5 1 0 
201.399921 -275.173152 148.791378 97 89 91 
205.124097 -270.165347 146.849181 160 150 150 
197.187275 -284.355237 147.383997 5 0 0 
197.067189 -311.540069 1.749625 104 101 102 
192.991300 -318.032723 0.816874 24 17 18 
201.311416 -285.040037 148.655465 20 17 18 
200.836152 -287.814426 147.082565 13 2 6 
202.022843 -286.008575 147.953182 150 145 147 
204.952364 -285.700000 146.388195 12 4 6 
160.797263 -381.513206 0.885913 159 141 138 
213.449222 -349.343824 5.833191 158 140 137 
194.275689 -391.386188 0.457645 36 26 21 
203.268131 -383.785613 0.244534 159 141 138 
197.113515 -395.917198 0.753731 156 141 137 
211.110424 -378.103013 5.192558 44 31 27 
306.740822 -275.985194 0.394718 44 27 21 
0.427133 -24.421600 15.011262 155 137 134 
0.427133 -24.421600 15.011262 155 137 134 
9.686024 -1.962879 11.974050 157 138 132 
9.275570 -12.900536 12.341257 158 136 133 
15.173394 -26.992438 12.153270 39 26 22 
15.173394 -26.992438 12.153270 39 26 22 
3.905616 -103.665455 11.623675 160 140 132 
12.023640 -93.932999 9.916037 163 144 140 
12.023640 -93.932999 9.916037 163 144 140 
8.756516 -111.120215 9.615473 39 29 24 
12.590309 -101.852580 7.490396 159 141 135 
12.590309 -101.852580 7.490396 159 141 135 
17.869340 -91.290725 11.077396 43 27 25 
8.839176 -130.358089 11.425451 33 19 15 
18.105751 -126.139187 9.781904 43 29 25 
18.105751 -126.139187 9.781904 43 29 25 
1.531579 -204.495654 8.197423 44 31 27 
1.531579 -204.495654 8.197423 44 31 27 
11.204510 -182.191747 6.844339 37 26 23 
10.163384 -193.476730 9.699331 164 142 139 
3.166880 -212.311476 3.031767 163 144 138 
3.166880 -212.311476 3.031767 163 144 138 
9.767255 -204.318971 12.537281 41 25 22 
18.529951 -185.830931 8.722544 37 24 21 
18.529951 -185.830931 8.722544 37 24 21 
82.072793 -28.086291 9.499189 36 23 17 
10.950854 -208.054181 7.831771 162 142 139 
90.585291 -11.865916 11.147351 160 143 137 
88.359817 -29.048382 15.452292 153 135 132 
88.359817 -29.048382 15.452292 153 135 132 
97.022404 -13.503525 8.928702 38 23 19 
97.022404 -13.503525 8.928702 38 23 19 
16.747887 -218.835515 6.263429 41 27 25 
16.747887 -218.835515 6.263429 41 27 25 
48.481642 -158.622092 10.582201 157 136 130 
48.481642 -158.622092 10.582201 157 136 130 
106.565472 -20.963207 14.748566 41 24 21 
106.565472 -20.963207 14.748566 41 24 21 
103.728946 -32.263607 16.783589 158 139 136 
103.728946 -32.263607 16.783589 158 139 136 
121.147471 -0.761360 13.399264 34 23 20 
101.266946 -67.278638 14.948718 159 138 132 
91.025651 -98.572313 7.700755 158 140 137 
6.313493 -301.812527 8.446280 40 25 21 
6.313493 -301.812527 8.446280 40 25 21 
4.535565 -308.616079 4.120026 160 146 141 
85.684297 -121.515286 8.943072 38 26 22 
85.684297 -121.515286 8.943072 38 26 22 
103.902760 -93.584845 8.699970 37 27 22 
99.000718 -116.849502 9.798187 156 141 137 
99.000718 -116.849502 9.798187 156 141 137 
107.607553 -110.606228 9.500064 41 23 20 
116.826107 -96.630646 6.297520 158 138 135 
109.456769 -117.463730 6.881344 158 138 135 
109.456769 -117.463730 6.881344 158 138 135 
0.736066 -387.841013 3.922688 161 143 140 
0.736066 -387.841013 3.922688 161 143 140 
0.736066 -387.841013 3.922688 161 143 140 
96.624050 -193.271161 10.447470 158 140 137 
96.776163 -200.271106 8.476758 40 22 19 
96.776163 -200.271106 8.476758 40 22 19 
191.627741 -12.736038 20.057225 158 139 138 
13.926505 -385.859556 1.707515 42 30 26 
13.926505 -385.859556 1.707515 42 30 26 
100.445971 -203.870178 4.169472 166 143 142 
106.593114 -196.422369 2.779519 49 31 28 
192.031910 -26.615003 16.438869 151 138 134 
201.955588 -9.587808 23.021704 34 30 26 
111.403009 -202.603246 8.406563 169 151 148 
112.479732 -201.967905 12.398510 160 145 141 
202.183132 -16.823702 13.200311 45 30 26 
202.183132 -16.823702 13.200311 45 30 26 
123.043003 -182.519033 4.271693 49 31 28 
114.952289 -206.401212 5.608971 51 31 28 
212.192198 -14.550796 6.064515 159 141 138 
115.972958 -211.319949 4.320411 164 145 144 
114.603490 -215.561397 6.554342 159 140 139 
123.885000 -200.415441 2.222057 39 31 23 
222.432377 -22.408817 9.194163 41 27 25 
190.144204 -88.053244 11.500366 40 24 18 
105.965728 -258.560744 8.128686 158 138 135 
207.712672 -59.801369 11.128124 163 142 136 
194.470530 -88.776275 6.474253 156 137 131 
97.435685 -285.363158 3.016636 43 29 25 
89.805444 -313.062148 3.817137 159 144 140 
89.805444 -313.062148 3.817137 159 144 140 
187.281462 -130.390130 9.906414 164 143 137 
203.059180 -101.882094 6.547675 162 143 137 
199.156212 -116.545905 3.834543 158 141 142 
107.537928 -293.201144 2.559574 166 148 145 
213.643711 -95.493383 5.529952 159 139 136 
228.894983 -83.274996 3.166019 44 29 25 
228.894983 -83.274996 3.166019 44 29 25 
