ply
format ascii 1.0
element vertex 1099
property float x
property float y
property float z
property uchar red
property uchar green
property uchar blue
end_header
325.145545 -291.565744 3.910110 175 156 150 
325.139689 -210.787876 5.427401 174 152 149 
325.139689 -210.787876 5.427401 174 152 149 
325.920542 -286.667456 5.406319 169 151 148 
330.092160 -203.192733 9.254116 43 29 27 
331.573090 -217.752082 5.970504 40 30 25 
330.237497 -181.663300 10.311158 43 30 28 
331.616564 -399.369911 8.166969 44 31 27 
333.380330 -282.486114 6.537518 39 24 21 
333.380330 -282.486114 6.537518 39 24 21 
333.546707 -379.627861 7.927711 46 31 27 
333.546707 -379.627861 7.927711 46 31 27 
97.185689 -392.708633 0.490515 94 94 95 
97.185689 -392.708633 0.490515 94 94 95 
130.367230 -378.006566 8.391263 103 93 93 
182.168107 -380.012688 18.010142 115 101 99 
191.227396 -378.870299 15.382172 19 11 11 
191.701520 -394.926152 13.849629 19 12 9 
196.336864 -386.230695 14.613365 118 104 102 
295.883803 -97.387829 6.815330 182 163 161 
295.883803 -97.387829 6.815330 182 163 161 
299.968937 -100.852385 1.530910 50 34 32 
293.853180 -217.012935 9.564217 43 33 28 
293.853180 -217.012935 9.564217 43 33 28 
298.847961 -202.576656 6.791140 175 149 147 
298.847961 -202.576656 6.791140 175 149 147 
300.580117 -187.552743 7.063785 44 34 29 
300.580117 -187.552743 7.063785 44 34 29 
291.781590 -381.557141 19.755415 48 33 28 
291.781590 -381.557141 19.755415 48 33 28 
307.158503 -110.248509 4.583737 182 163 162 
299.030821 -288.673388 11.205322 174 155 149 
306.489879 -212.214950 8.407461 176 154 151 
311.849243 -91.493410 9.912841 45 31 29 
311.849243 -91.493410 9.912841 45 31 29 
302.484087 -302.384378 15.036668 176 156 153 
314.943533 -112.848191 6.031562 178 161 159 
298.894623 -388.957026 19.627937 175 156 150 
298.894623 -388.957026 19.627937 175 156 150 
310.620144 -251.879935 9.578992 171 150 144 
315.268584 -207.572002 5.150852 174 152 149 
315.268584 -207.572002 5.150852 174 152 149 
309.769338 -305.944881 8.523341 174 154 151 
314.784688 -203.075933 8.430068 176 154 151 
322.250514 -98.183999 5.707980 179 161 158 
311.140156 -287.079838 14.193604 41 27 25 
323.105000 -103.606479 6.280178 180 162 159 
315.282394 -294.327003 3.374335 172 152 146 
314.460162 -295.733253 7.946826 172 152 146 
314.643707 -315.121299 15.052652 172 152 149 
327.598896 -115.867912 5.538453 43 33 28 
315.746749 -305.833194 13.224612 45 28 22 
315.746749 -305.833194 13.224612 45 28 22 
315.746749 -305.833194 13.224612 45 28 22 
322.122000 -205.027384 10.577730 49 36 32 
324.345757 -212.051273 8.196710 174 152 149 
324.345757 -212.051273 8.196710 174 152 149 
330.449650 -180.885674 9.252179 41 29 26 
330.449650 -180.885674 9.252179 41 29 26 
322.864541 -312.391768 11.025843 175 154 149 
323.918762 -289.226796 12.656080 169 151 148 
330.014249 -203.321263 9.390665 43 29 27 
317.688190 -396.952800 17.547443 46 33 29 
330.594928 -219.364908 9.417874 40 30 25 
330.594928 -219.364908 9.417874 40 30 25 
331.623931 -284.746573 12.742225 40 24 22 
330.802247 -320.929025 13.166467 43 30 26 
330.101017 -382.175809 19.542291 46 31 27 
330.101017 -382.175809 19.542291 46 31 27 
4.353104 -102.002419 0.211563 145 142 143 
12.885526 -104.692747 3.576254 25 22 23 
89.547169 -362.474487 63.614530 15 10 16 
90.216714 -365.614664 28.447531 15 12 13 
90.216714 -365.614664 28.447531 15 12 13 
93.379195 -354.323320 72.378930 165 150 151 
93.379195 -354.323320 72.378930 165 150 151 
93.379195 -354.323320 72.378930 165 150 151 
90.340554 -368.062812 10.245473 16 10 13 
91.300892 -371.870778 2.480002 5 2 1 
95.955342 -367.061975 7.002002 18 13 14 
104.668374 -354.250744 75.099095 38 30 27 
104.668374 -354.250744 75.099095 38 30 27 
104.668374 -354.250744 75.099095 38 30 27 
94.617247 -176.331053 87.435706 36 28 28 
94.617247 -176.331053 87.435706 36 28 28 
95.378198 -187.174670 88.098269 173 161 161 
104.940262 -344.293949 76.860346 175 158 159 
104.940262 -344.293949 76.860346 175 158 159 
104.628888 -324.604584 81.092600 160 137 139 
95.474294 -161.488778 97.241991 38 30 30 
95.838525 -167.697923 90.991243 173 161 161 
95.838525 -167.697923 90.991243 173 161 161 
105.524948 -380.754059 10.065361 19 15 14 
108.375931 -357.997319 72.089651 38 27 25 
91.566901 -87.708926 5.125993 149 141 143 
109.200359 -372.113982 9.073011 14 6 7 
113.458436 -371.429900 27.388570 11 8 9 
106.175188 -199.601419 91.762860 161 150 147 
105.869412 -187.195753 88.177010 36 28 28 
116.088470 -355.707602 75.890872 170 153 154 
116.293061 -344.994440 78.826625 46 36 31 
118.855274 -367.961100 25.562036 85 77 79 
119.259180 -370.901535 0.712951 60 57 58 
124.449330 -371.214539 39.565001 15 10 11 
115.919829 -87.467865 4.433175 156 145 142 
133.519176 -367.561960 27.301491 82 72 74 
134.892971 -364.344189 59.603151 89 86 85 
123.468550 -79.918067 0.776216 30 22 22 
124.371718 -87.818593 5.062250 29 21 21 
138.755374 -344.237192 76.222267 45 35 30 
138.755374 -344.237192 76.222267 45 35 30 
140.435654 -365.779599 15.182666 89 84 85 
146.264803 -369.522878 14.764456 78 73 74 
138.940883 -154.738863 87.647735 38 34 26 
138.940883 -154.738863 87.647735 38 34 26 
150.137598 -344.744228 78.046548 175 155 157 
152.674637 -368.873643 13.792612 88 83 84 
153.466663 -370.897284 11.536949 17 14 15 
156.537575 -372.312912 26.471553 16 11 12 
157.101464 -366.536947 31.828533 16 14 14 
150.007405 -163.914385 86.266116 41 33 28 
150.007405 -163.914385 86.266116 41 33 28 
149.961757 -156.788519 91.531049 178 164 162 
161.605929 -373.499681 24.907593 45 40 41 
163.334139 -368.730399 12.686640 16 11 12 
167.606417 -371.164446 8.746685 18 10 12 
166.964318 -373.804082 34.402074 87 82 83 
161.129112 -165.261414 89.055564 184 168 166 
161.129112 -165.261414 89.055564 184 168 166 
161.057885 -155.991299 90.654171 42 31 28 
161.057885 -155.991299 90.654171 42 31 28 
161.057885 -155.991299 90.654171 42 31 28 
172.720220 -372.944200 26.567803 85 77 77 
174.732983 -370.775689 22.594285 90 81 78 
178.521140 -370.712002 8.939138 88 84 80 
178.398279 -370.228962 18.686058 23 15 15 
172.054186 -161.915216 100.456111 180 166 164 
182.318188 -372.308501 22.106307 45 41 37 
183.384676 -377.471410 12.627797 115 101 99 
189.126470 -369.173330 1.811290 14 8 11 
191.519794 -369.971698 3.773025 77 72 71 
192.365062 -376.384670 5.028619 21 13 13 
187.213326 -96.769226 12.057345 129 113 111 
187.466448 -92.838318 11.314742 37 23 21 
182.989604 -159.725978 95.972040 47 36 33 
182.989604 -159.725978 95.972040 47 36 33 
194.583144 -372.087384 22.887047 88 80 80 
196.223640 -370.086631 32.175165 20 12 14 
194.133985 -168.028090 93.558696 45 35 30 
194.133985 -168.028090 93.558696 45 35 30 
193.475753 -162.288645 100.504136 185 170 166 
204.769353 -387.275321 14.030366 26 16 13 
208.001685 -371.172923 21.973630 19 15 11 
206.772844 -371.648850 47.855737 23 14 14 
211.378101 -371.950617 34.350434 19 10 7 
211.378101 -371.950617 34.350434 19 10 7 
206.078931 -304.991580 89.667573 54 40 38 
206.078931 -304.991580 89.667573 54 40 38 
207.841386 -366.794035 81.590851 25 20 21 
219.982124 -85.818625 2.859033 176 162 160 
220.227963 -369.916296 12.982960 95 83 85 
221.822208 -375.222191 26.868438 75 60 60 
221.574735 -374.215781 30.746741 23 8 9 
217.144993 -152.246517 85.903151 188 170 167 
217.342627 -315.930248 90.117808 51 38 34 
217.921803 -357.505956 87.407915 42 31 28 
217.921803 -357.505956 87.407915 42 31 28 
217.921803 -357.505956 87.407915 42 31 28 
233.313602 -374.441490 0.115448 35 21 19 
233.257383 -372.149614 4.348850 95 84 80 
227.233567 -158.899756 95.394668 47 37 32 
237.791130 -379.564140 21.972674 157 138 132 
228.112994 -294.586811 91.456683 188 169 168 
228.512966 -359.195601 91.310318 170 153 154 
228.512966 -359.195601 91.310318 170 153 154 
232.798241 -159.602034 99.276196 181 163 160 
235.329271 -363.134817 82.209049 125 106 105 
234.547672 -366.734045 87.602458 62 46 44 
238.650599 -366.258037 65.690939 170 149 148 
237.894434 -363.317352 93.398577 89 71 68 
262.196209 -182.725483 63.433461 170 148 145 
260.955444 -283.565298 83.235881 175 150 148 
292.066614 -117.318167 12.950065 50 38 31 
293.021695 -219.050264 14.030667 46 33 29 
293.021695 -219.050264 14.030667 46 33 29 
291.949487 -283.542037 10.953882 43 30 26 
291.949487 -283.542037 10.953882 43 30 26 
300.817176 -92.541601 6.382860 181 163 160 
297.393025 -205.715050 13.336974 175 149 147 
297.393025 -205.715050 13.336974 175 149 147 
299.318409 -190.445685 13.129489 49 36 32 
299.558533 -211.559431 10.636132 47 32 28 
299.558533 -211.559431 10.636132 47 32 28 
293.393297 -379.892635 14.679896 46 31 27 
303.793243 -94.853303 17.844944 177 158 157 
303.793243 -94.853303 17.844944 177 158 157 
299.846380 -288.116060 8.536150 174 155 149 
305.260220 -114.934220 12.006284 185 166 165 
305.887771 -207.203942 14.110534 46 31 27 
305.887771 -207.203942 14.110534 46 31 27 
303.797976 -300.644313 10.695506 178 158 155 
301.384773 -386.655196 10.391228 173 156 150 
308.474704 -102.080224 26.244028 45 30 28 
311.484966 -121.028832 18.855467 181 162 161 
309.774640 -310.553674 5.913225 42 29 25 
314.839550 -199.872306 14.240066 43 30 26 
314.839550 -199.872306 14.240066 43 30 26 
311.560300 -286.533489 13.316735 43 29 27 
310.357947 -307.556884 15.231466 161 141 138 
317.938922 -108.526936 21.476713 181 163 160 
309.349286 -387.376505 11.511869 45 33 26 
309.349286 -387.376505 11.511869 45 33 26 
309.742839 -380.091003 13.536194 51 36 32 
311.279067 -300.078852 21.584308 174 155 149 
310.656234 -399.994777 16.170173 47 33 28 
315.397868 -314.226012 13.038341 176 156 153 
317.011944 -304.194668 9.004434 44 30 23 
317.011944 -304.194668 9.004434 44 30 23 
317.011944 -304.194668 9.004434 44 30 23 
317.011944 -304.194668 9.004434 44 30 23 
317.209259 -290.093270 10.892090 41 29 23 
317.209259 -290.093270 10.892090 41 29 23 
322.580701 -126.912803 23.017514 44 35 27 
322.269173 -215.765379 16.158730 175 153 150 
322.269173 -215.765379 16.158730 175 153 150 
323.961877 -311.131364 7.813290 177 157 154 
325.596668 -286.788460 6.817647 174 156 153 
327.754643 -185.555025 18.258974 43 30 26 
327.754643 -185.555025 18.258974 43 30 26 
318.178289 -396.371653 17.076882 49 37 30 
327.790769 -206.617303 16.359176 42 28 26 
332.133635 -96.466841 23.954640 177 162 158 
332.512522 -283.356543 9.605966 42 26 24 
332.742065 -318.872553 6.609620 42 29 25 
330.484409 -399.625518 12.246384 45 32 28 
333.184191 -379.544319 9.253063 47 32 28 
333.184191 -379.544319 9.253063 47 32 28 
322.408567 -293.263691 125.903254 174 152 149 
322.408567 -293.263691 125.903254 174 152 149 
13.088648 -104.320958 3.251439 25 22 23 
90.707022 -367.201045 34.934112 16 13 14 
90.835514 -369.138619 14.528957 17 11 14 
96.783398 -369.447518 17.229085 18 13 14 
113.648924 -372.301216 31.072055 12 9 10 
119.556402 -371.524452 3.243431 59 56 55 
123.596310 -370.943374 24.479905 83 78 79 
124.196489 -300.682411 86.980400 181 165 163 
156.790748 -371.218623 21.444077 17 12 13 
162.022899 -371.657410 16.633156 47 42 43 
167.758830 -371.388007 9.871852 20 12 14 
167.330366 -372.030065 26.556003 87 82 83 
173.276555 -371.193245 18.839711 87 79 79 
175.526383 -363.050529 75.870965 21 10 8 
183.830526 -376.448438 7.550250 115 101 99 
178.916082 -366.748336 80.364105 18 9 13 
178.916082 -366.748336 80.364105 18 9 13 
184.617648 -370.012484 34.012984 95 86 86 
185.354113 -372.348061 32.002580 21 11 15 
188.508797 -371.602974 13.252113 14 8 11 
191.665267 -370.090884 4.540880 77 72 71 
193.429490 -392.110622 0.433959 18 11 8 
185.368225 -366.113683 78.834295 26 16 18 
205.159667 -386.659928 11.084008 26 16 13 
210.074949 -370.667546 4.867877 20 11 8 
218.872537 -372.372365 24.684950 96 84 86 
217.084945 -358.238624 90.890783 41 30 27 
217.084945 -358.238624 90.890783 41 30 27 
217.020856 -348.279075 91.278797 176 157 156 
220.913315 -361.079526 89.810454 44 30 28 
228.263974 -358.641586 90.124681 170 153 154 
228.263974 -358.641586 90.124681 170 153 154 
227.826237 -348.669956 92.465925 39 33 28 
227.933277 -338.327791 93.576700 184 163 162 
225.904671 -191.430049 98.481023 189 174 170 
227.104612 -179.262168 95.414714 46 39 31 
233.994556 -366.789738 88.656869 64 48 46 
233.313560 -365.605359 92.705227 122 103 102 
237.799855 -367.075272 69.275869 170 149 148 
263.231980 -278.194047 69.562584 175 150 148 
292.787208 -282.191992 7.322724 44 31 27 
294.412798 -378.706831 9.918085 47 31 27 
294.412798 -378.706831 9.918085 47 31 27 
294.381637 -216.510534 8.425578 46 33 29 
294.381637 -216.510534 8.425578 46 33 29 
296.148821 -97.960830 6.865701 181 163 160 
296.148821 -97.960830 6.865701 181 163 160 
298.993782 -315.770810 6.221000 47 32 28 
299.602992 -102.581918 3.435424 50 34 32 
299.602992 -102.581918 3.435424 50 34 32 
299.547024 -201.649002 4.676471 174 149 147 
299.681444 -189.980863 12.155009 49 36 32 
299.681444 -189.980863 12.155009 49 36 32 
305.579701 -297.945392 2.938373 178 158 155 
306.843181 -191.761561 2.466270 48 35 31 
306.843181 -191.761561 2.466270 48 35 31 
306.843181 -191.761561 2.466270 48 35 31 
306.105643 -113.512031 9.261418 186 167 166 
307.302186 -211.071693 5.711794 176 156 153 
307.307598 -204.557753 8.442319 45 30 26 
307.307598 -204.557753 8.442319 45 30 26 
305.819525 -159.882040 21.704609 170 148 145 
311.368452 -308.594558 0.305098 42 29 25 
310.233682 -386.341862 7.687145 45 33 26 
310.233682 -386.341862 7.687145 45 33 26 
309.409014 -380.102496 14.936097 51 36 32 
313.187727 -303.778110 4.126390 164 144 141 
309.078258 -100.575186 23.290508 45 29 27 
309.078258 -100.575186 23.290508 45 29 27 
313.038100 -284.360256 7.459606 44 30 28 
313.533044 -397.547536 4.240785 46 34 27 
315.683570 -207.122631 4.021500 176 154 151 
314.892270 -203.081924 8.128401 177 155 152 
314.322259 -296.235313 10.369569 175 155 150 
317.266995 -311.912461 5.935946 176 156 153 
318.039751 -302.763725 4.941444 44 30 23 
318.039751 -302.763725 4.941444 44 30 23 
318.039751 -302.763725 4.941444 44 30 23 
318.039751 -302.763725 4.941444 44 30 23 
320.327987 -103.101262 12.559766 180 162 159 
319.971301 -394.801457 10.238250 49 37 30 
324.411437 -212.142484 8.210494 176 154 151 
324.411437 -212.142484 8.210494 176 154 151 
325.410504 -309.188457 2.154206 177 157 154 
324.774799 -291.880997 5.077449 176 156 153 
325.445476 -120.886623 12.657465 44 35 27 
326.234087 -285.804029 4.215779 173 155 152 
329.565170 -203.684880 10.321314 43 29 27 
329.528142 -182.801964 12.346526 43 30 26 
331.121983 -218.439285 7.217377 40 30 25 
331.121983 -218.439285 7.217377 40 30 25 
333.945672 -281.403249 4.406640 43 27 25 
331.863709 -398.593868 6.808137 44 31 27 
334.794814 -377.995076 3.229527 47 32 28 
334.794814 -377.995076 3.229527 47 32 28 
341.022305 -269.663873 68.020882 174 152 149 
92.348420 -373.083958 33.821807 16 11 14 
106.128173 -376.969736 3.476644 20 15 14 
156.049401 -374.874565 22.743917 84 79 78 
159.834040 -375.342824 23.916507 19 9 9 
166.601823 -376.069774 30.653906 19 11 13 
166.601823 -376.069774 30.653906 19 11 13 
172.123957 -375.690674 38.117320 86 78 78 
189.922208 -375.014298 18.116761 13 5 5 
189.672155 -374.998972 25.743374 76 71 70 
191.589234 -395.702783 18.673128 19 12 9 
193.180106 -376.240601 40.265831 86 78 78 
196.268405 -386.640764 16.894235 115 101 99 
203.517094 -389.833171 25.117412 27 16 13 
205.297111 -377.866968 50.196405 18 14 10 
212.209715 -395.182525 15.616741 119 111 106 
212.209715 -395.182525 15.616741 119 111 106 
215.993551 -378.455124 49.432991 96 84 86 
292.913994 -113.828892 7.921669 50 38 31 
293.128436 -218.761914 13.145744 45 32 28 
293.128436 -218.761914 13.145744 45 32 28 
298.203196 -203.867017 9.419252 174 149 147 
300.043980 -188.562363 9.270777 49 36 32 
300.043980 -188.562363 9.270777 49 36 32 
306.087612 -112.306963 8.236863 187 168 167 
298.460610 -290.710714 14.742752 174 155 149 
290.687786 -383.462563 27.814527 47 31 27 
294.182084 -323.265236 28.239243 48 33 29 
305.940561 -213.433948 10.737209 175 155 152 
307.608635 -203.943538 7.265602 46 31 27 
307.608635 -203.943538 7.265602 46 31 27 
313.343183 -105.915847 9.178895 52 37 33 
315.054400 -111.818892 4.743108 181 163 161 
302.576613 -303.145458 16.489733 178 158 155 
316.077337 -206.149054 1.877970 175 153 150 
316.694359 -196.457453 7.355227 42 29 25 
310.154085 -305.884007 7.865849 177 157 154 
311.021915 -288.059470 16.312121 44 30 28 
327.578894 -115.489837 5.194010 44 35 27 
327.578894 -115.489837 5.194010 44 35 27 
306.530119 -390.824573 24.499287 45 33 26 
306.530119 -390.824573 24.499287 45 33 26 
307.082212 -383.592165 26.022486 51 36 32 
321.131030 -207.687490 15.936206 50 36 32 
317.737015 -290.201320 9.841911 43 30 26 
315.802531 -306.611261 14.726941 44 30 23 
315.802531 -306.611261 14.726941 44 30 23 
315.802531 -306.611261 14.726941 44 30 23 
315.802531 -306.611261 14.726941 44 30 23 
314.582891 -316.168329 17.361962 176 156 153 
323.761734 -213.713394 11.561060 176 154 151 
323.761734 -213.713394 11.561060 176 154 151 
329.963715 -203.482763 9.979309 43 29 27 
324.401513 -289.241473 12.281838 173 155 152 
323.108704 -313.148796 12.498860 176 156 153 
330.563425 -219.962676 10.557075 41 31 26 
330.563425 -219.962676 10.557075 41 31 26 
312.411175 -393.553257 38.373584 180 159 153 
331.240545 -321.647859 13.811990 42 29 25 
331.240545 -321.647859 13.811990 42 29 25 
330.613710 -382.834173 20.626468 47 32 28 
2.620463 -382.951315 0.273148 106 104 109 
7.326927 -195.012536 0.602291 37 29 29 
81.236264 -376.159961 8.618584 26 18 18 
81.236264 -376.159961 8.618584 26 18 18 
98.310733 -394.567881 11.064074 92 93 97 
98.310733 -394.567881 11.064074 92 93 97 
105.263836 -392.953666 11.990942 89 88 90 
107.674195 -386.132012 10.472548 99 94 95 
120.463442 -390.962253 11.036481 14 11 10 
161.142464 -377.971655 45.619778 40 35 36 
171.572885 -378.569689 52.489075 84 76 76 
182.134779 -381.325978 28.927530 114 100 98 
190.922642 -380.404664 23.829165 21 13 13 
192.036117 -379.308011 56.074217 82 74 74 
203.190283 -390.774610 32.514254 26 16 13 
211.936876 -395.805567 21.366883 120 112 107 
293.961589 -217.231632 10.153358 46 33 29 
293.961589 -217.231632 10.153358 46 33 29 
290.533806 -285.573216 17.072555 43 30 26 
290.533806 -285.573216 17.072555 43 30 26 
299.594979 -201.253071 4.007906 174 149 147 
300.192909 -188.763859 9.894645 49 36 32 
300.192909 -188.763859 9.894645 49 36 32 
290.484319 -382.264106 27.061343 47 31 27 
298.972374 -288.568900 11.856473 174 155 149 
307.232603 -211.037364 5.799020 175 155 152 
308.083596 -203.197398 5.646487 46 31 27 
308.083596 -203.197398 5.646487 46 31 27 
302.397206 -302.224019 16.148022 178 158 155 
298.076694 -389.043884 23.825171 173 156 150 
309.555202 -305.532974 9.047711 178 157 154 
315.754708 -201.277665 4.608269 178 156 153 
318.569571 -193.116030 0.248249 43 28 24 
311.251993 -286.740902 14.312459 43 29 27 
305.887594 -389.732129 24.802070 45 33 26 
305.887594 -389.732129 24.802070 45 33 26 
314.121780 -296.437565 10.941766 175 155 150 
305.596185 -383.214571 29.703146 51 36 32 
324.031137 -189.069952 5.495972 174 154 151 
324.783824 -211.434935 6.859564 177 155 152 
324.783824 -211.434935 6.859564 177 155 152 
331.861981 -178.324715 3.969187 44 31 27 
322.533036 -312.466826 12.783230 176 156 153 
331.253805 -200.737499 4.207611 43 29 27 
331.573818 -217.665629 5.629823 39 29 24 
330.552004 -321.054845 14.123194 42 29 25 
330.390868 -381.129421 18.491573 47 32 28 
214.295546 -392.158198 1.257866 120 112 107 
214.295546 -392.158198 1.257866 120 112 107 
295.731395 -214.051912 2.897069 46 33 29 
301.882247 -185.533692 3.091095 48 36 32 
307.884416 -109.607390 2.616283 186 167 166 
295.396827 -377.988661 6.166128 47 31 27 
308.365069 -209.089698 1.418529 176 156 153 
303.166910 -385.038453 3.096555 174 156 150 
312.754519 -249.319567 3.706070 174 150 145 
316.485901 -200.309374 2.249841 178 156 153 
322.872365 -97.439633 3.502751 181 163 160 
313.935268 -283.261896 4.210739 44 30 28 
316.080017 -293.881091 3.310348 175 155 150 
311.217260 -385.741572 4.152257 45 33 26 
311.217260 -385.741572 4.152257 45 33 26 
311.260630 -378.574086 7.085149 51 36 32 
328.272278 -114.867986 2.709139 44 35 27 
328.272278 -114.867986 2.709139 44 35 27 
317.983416 -311.101894 3.304007 176 156 153 
318.753338 -301.972310 2.428691 44 30 23 
318.753338 -301.972310 2.428691 44 30 23 
318.753338 -301.972310 2.428691 44 30 23 
318.753338 -301.972310 2.428691 44 30 23 
325.727994 -209.973181 3.528242 177 155 152 
325.727994 -209.973181 3.528242 177 155 152 
332.447089 -177.199755 1.795461 43 30 26 
332.102489 -199.619389 1.441481 42 28 26 
326.770381 -285.195774 2.397151 173 155 152 
325.552728 -309.244734 2.036515 177 157 154 
332.458808 -216.476426 2.889870 40 30 25 
334.139905 -317.258910 1.502205 43 30 26 
334.139905 -317.258910 1.502205 43 30 26 
332.786114 -398.110823 4.115362 44 31 27 
334.522693 -378.358297 4.502259 47 32 28 
334.522693 -378.358297 4.502259 47 32 28 
5.171330 -290.866385 2.594884 152 142 142 
91.943561 -366.907831 34.596123 16 13 14 
91.943561 -366.907831 34.596123 16 13 14 
91.608591 -368.574879 13.525229 15 11 14 
96.893497 -348.282790 91.399691 41 33 28 
102.875926 -370.228077 21.954726 73 73 73 
94.148799 -167.373177 95.022997 170 158 160 
107.672692 -348.027000 89.765365 175 158 159 
107.672692 -348.027000 89.765365 175 158 159 
95.894020 -177.466863 89.208687 37 28 28 
95.894020 -177.466863 89.208687 37 28 28 
106.656964 -381.957801 13.730171 12 7 6 
96.706275 -161.798907 97.534742 38 30 30 
114.485057 -371.250503 27.565829 10 7 8 
109.309949 -189.141658 102.111965 175 163 165 
107.591696 -169.527610 93.997304 40 31 28 
107.943476 -160.291866 97.997184 174 163 160 
111.671597 -178.159822 96.265200 167 156 153 
109.737597 -129.193953 63.879287 27 19 21 
124.680836 -371.011008 25.880995 82 79 80 
124.680836 -371.011008 25.880995 82 79 80 
135.588087 -384.633499 22.052569 93 87 90 
135.503209 -369.190788 15.758307 16 16 16 
133.528716 -239.795200 95.362975 178 165 161 
128.964564 -155.504202 89.583252 175 164 161 
128.964564 -155.504202 89.583252 175 164 161 
141.884386 -367.557602 37.825286 14 9 10 
147.232053 -372.578340 29.251308 82 77 78 
147.160966 -370.249221 34.558691 19 11 13 
147.160966 -370.249221 34.558691 19 11 13 
157.741220 -372.062199 25.953014 21 16 17 
161.191139 -371.891123 8.976953 15 10 9 
151.105678 -167.617987 92.102507 43 32 29 
151.105678 -167.617987 92.102507 43 32 29 
151.077760 -159.070620 94.692256 179 165 163 
162.607478 -372.508910 21.477316 43 38 39 
168.402516 -371.639174 11.710842 21 13 15 
167.984501 -372.887432 30.520899 85 80 81 
169.002814 -371.876228 41.217212 16 11 12 
169.002814 -371.876228 41.217212 16 11 12 
169.505273 -364.715065 80.862837 20 12 12 
162.061591 -155.981217 90.328874 40 30 27 
162.061591 -155.981217 90.328874 40 30 27 
173.899443 -371.121848 18.825596 82 78 81 
179.218849 -370.076882 6.609568 83 78 77 
179.334880 -369.563486 16.521538 26 18 18 
176.461615 -368.631673 87.251532 92 82 84 
183.286957 -372.022140 21.529926 42 38 34 
173.256069 -164.176571 103.578902 183 164 163 
185.685556 -369.344016 30.738035 93 84 85 
185.685556 -369.344016 30.738035 93 84 85 
186.328058 -371.922628 29.768442 18 8 12 
189.533916 -369.171377 2.329962 11 4 6 
182.073494 -85.169111 1.424861 179 162 163 
187.851026 -367.139981 92.064035 100 88 88 
183.950691 -162.413981 99.811062 43 32 29 
198.639163 -382.999106 0.525053 111 97 95 
198.639163 -382.999106 0.525053 111 97 95 
198.455991 -372.233959 6.140188 14 4 4 
197.179960 -370.760296 35.619828 18 8 10 
197.497060 -369.787523 44.599747 92 87 86 
197.497060 -369.787523 44.599747 92 87 86 
198.531971 -366.640297 68.818764 22 14 16 
206.511262 -384.669473 1.420638 22 13 13 
194.531569 -164.714753 103.917019 186 168 165 
208.018864 -371.141770 46.068340 21 15 14 
214.981955 -391.968626 0.989958 113 106 101 
208.632734 -369.928900 93.697077 20 15 16 
209.958355 -291.624272 101.494359 54 41 37 
220.647468 -370.436835 15.672568 97 85 87 
214.136956 -367.368541 82.158008 97 92 93 
223.029402 -374.379165 16.233879 20 8 8 
223.789482 -372.879524 47.211042 23 15 10 
223.789482 -372.879524 47.211042 23 15 10 
218.307972 -350.784079 98.705737 175 156 155 
218.306630 -361.197910 100.243586 39 30 27 
218.306630 -361.197910 100.243586 39 30 27 
218.306630 -361.197910 100.243586 39 30 27 
217.779940 -154.664214 89.345752 188 170 167 
233.696411 -373.657641 37.974034 45 32 28 
228.991644 -351.231132 100.173834 42 31 28 
228.157671 -160.241215 97.110143 47 37 32 
228.157671 -160.241215 97.110143 47 37 32 
228.715465 -362.830712 104.334142 168 151 152 
228.715465 -362.830712 104.334142 168 151 152 
234.062431 -158.678685 96.715691 188 170 167 
235.815407 -367.684824 90.187362 59 43 41 
234.838088 -367.504199 98.363145 122 103 102 
238.866911 -368.454195 73.306462 170 149 148 
234.981361 -216.089245 102.399073 122 101 100 
239.037808 -367.854510 87.902205 174 155 154 
258.449209 -325.784675 66.073310 180 158 155 
262.480529 -184.723006 65.263072 174 152 149 
261.572936 -285.587231 88.645527 176 151 149 
299.693062 -101.047344 2.093111 51 38 34 
299.693062 -101.047344 2.093111 51 38 34 
300.604201 -199.446853 0.205768 182 156 154 
300.604201 -199.446853 0.205768 182 156 154 
295.184452 -378.982233 9.832855 50 33 27 
295.184452 -378.982233 9.832855 50 33 27 
302.067487 -285.424874 0.856449 176 158 155 
306.803333 -86.696800 5.307589 177 162 158 
306.803333 -86.696800 5.307589 177 162 158 
307.885731 -210.155387 3.927351 176 155 152 
302.148566 -386.694278 11.036579 174 156 150 
308.576729 -202.151610 3.813817 50 35 31 
314.228485 -85.777429 0.981475 49 35 33 
314.228485 -85.777429 0.981475 49 35 33 
315.357421 -100.791601 0.163498 53 36 33 
315.357421 -100.791601 0.163498 53 36 33 
315.404707 -111.259229 2.774628 182 163 162 
310.279669 -311.018795 7.673075 46 32 25 
315.769241 -207.383405 4.621324 177 156 152 
315.769241 -207.383405 4.621324 177 156 152 
310.584932 -307.806625 18.050449 160 140 137 
309.827361 -387.554634 13.409671 48 33 29 
311.199210 -379.563879 10.973274 52 38 31 
313.468879 -298.268257 16.239446 177 156 150 
323.749564 -101.761581 2.545183 182 164 161 
323.749564 -101.761581 2.545183 182 164 161 
311.973187 -399.599868 14.560492 49 37 30 
317.619069 -312.197329 6.699147 180 160 155 
318.048112 -303.659954 7.398701 46 32 25 
318.048112 -303.659954 7.398701 46 32 25 
318.048112 -303.659954 7.398701 46 32 25 
325.812654 -83.002591 3.850224 49 39 34 
317.753456 -290.649283 12.182471 51 33 30 
317.753456 -290.649283 12.182471 51 33 30 
326.075937 -119.506290 10.498266 46 36 31 
330.694079 -99.812963 5.420205 47 34 29 
321.680314 -394.180331 5.520638 50 38 31 
325.898556 -291.349455 3.150785 182 162 159 
325.458474 -309.975558 4.721566 178 157 154 
327.006489 -285.611482 3.115425 176 158 155 
329.346391 -182.963036 13.386844 44 32 28 
331.889483 -217.575248 5.554475 42 32 27 
331.889483 -217.575248 5.554475 42 32 27 
332.898296 -283.845515 10.414999 44 28 25 
332.898296 -283.845515 10.414999 44 28 25 
332.559285 -380.885017 15.552539 47 32 28 
2.332900 -293.286099 2.777673 153 141 141 
9.509534 -293.881411 0.413024 31 22 19 
9.509534 -293.881411 0.413024 31 22 19 
5.465352 -102.502572 2.727453 145 142 143 
8.548944 -90.862678 0.246514 142 139 140 
21.184602 -176.563817 1.068022 34 29 30 
21.184602 -176.563817 1.068022 34 29 30 
13.873485 -110.598385 0.556953 144 141 142 
13.873485 -110.598385 0.556953 144 141 142 
13.700586 -104.806109 5.208828 30 27 27 
20.313342 -101.240610 0.275082 26 23 22 
92.652699 -369.726123 46.376261 15 13 14 
93.223012 -372.875446 32.104967 17 12 15 
95.651849 -359.317834 92.020542 165 150 151 
95.651849 -359.317834 92.020542 165 150 151 
117.009840 -371.011817 14.539481 66 61 62 
124.968725 -373.051819 35.133605 82 79 80 
124.968725 -373.051819 35.133605 82 79 80 
107.294659 -183.922045 101.566578 166 154 154 
107.294659 -183.922045 101.566578 166 154 154 
136.662428 -381.864791 3.042755 92 86 89 
146.803014 -364.746973 101.849858 39 28 25 
151.411698 -373.210080 4.273301 19 13 13 
152.894039 -368.631234 43.128105 91 86 87 
157.651011 -371.101223 6.582929 79 74 75 
157.659060 -366.507153 99.001212 34 17 18 
162.751071 -371.933171 19.602514 39 34 35 
168.364950 -373.437286 20.867157 21 13 15 
167.790538 -373.206761 33.111759 86 81 82 
171.187250 -371.420855 8.346766 83 78 80 
173.850988 -371.869412 23.226597 81 77 80 
169.613562 -368.520421 112.418624 20 9 6 
171.033806 -346.608994 98.942513 139 123 121 
171.033806 -346.608994 98.942513 139 123 121 
161.446078 -171.064299 99.333390 182 166 164 
161.446078 -171.064299 99.333390 182 166 164 
183.860104 -378.953885 18.331064 103 93 93 
161.355583 -161.302723 99.812860 41 30 27 
161.355583 -161.302723 99.812860 41 30 27 
193.744297 -393.140455 8.826660 19 11 11 
191.710233 -372.666026 17.944178 74 69 69 
193.361704 -376.183436 6.250702 21 13 13 
172.187552 -172.305437 101.484987 43 33 28 
172.437292 -164.147498 104.436851 183 164 163 
198.509838 -384.007619 7.194055 112 98 96 
198.509838 -384.007619 7.194055 112 98 96 
199.372470 -392.226485 4.934055 21 14 12 
198.458317 -372.911326 10.766418 14 4 4 
190.017009 -366.940175 108.647780 37 23 21 
190.017009 -366.940175 108.647780 37 23 21 
209.443400 -372.278098 5.273479 81 72 69 
209.443400 -372.278098 5.273479 81 72 69 
209.477151 -374.147946 23.333966 15 6 3 
198.744750 -309.916059 106.275627 184 165 164 
201.218359 -282.609652 106.774100 195 176 175 
219.264786 -372.717333 28.324866 96 84 86 
204.479922 -164.558792 104.192952 48 34 32 
216.350139 -361.389891 104.099400 39 30 27 
216.350139 -361.389891 104.099400 39 30 27 
216.350139 -361.389891 104.099400 39 30 27 
216.206380 -351.688091 104.780394 175 156 155 
215.508031 -183.838006 103.260907 187 171 169 
227.447669 -361.422249 102.259897 168 151 152 
227.447669 -361.422249 102.259897 168 151 152 
226.840081 -351.758016 105.157313 42 32 29 
230.108428 -347.396734 101.219903 47 31 29 
231.340936 -367.316980 104.810061 54 35 34 
231.816368 -365.370194 107.220724 169 151 150 
231.816368 -365.370194 107.220724 169 151 150 
225.323023 -196.407920 107.578508 188 170 167 
231.412496 -273.332461 101.460545 193 175 173 
231.412496 -273.332461 101.460545 193 175 173 
230.449114 -229.135998 103.378605 42 27 23 
260.701065 -284.246040 87.922892 177 152 150 
293.015541 -282.131588 7.994986 45 32 28 
294.630884 -378.336155 11.264611 50 33 27 
294.630884 -378.336155 11.264611 50 33 27 
295.485351 -214.694157 4.833427 46 34 27 
295.485351 -214.694157 4.833427 46 34 27 
297.842096 -317.039334 12.512232 49 35 31 
300.281145 -200.662191 2.910385 182 156 154 
300.706531 -100.350447 0.152835 50 37 33 
300.706531 -100.350447 0.152835 50 37 33 
302.448526 -184.437040 1.071796 51 38 34 
305.450771 -298.146762 5.383555 181 161 158 
307.578661 -210.949109 5.893650 176 155 152 
310.168639 -385.903760 10.141335 48 33 29 
306.618142 -89.745053 9.484503 175 159 156 
311.881252 -308.134849 0.405159 46 32 25 
307.369356 -157.870931 17.933717 173 151 148 
312.931682 -397.525657 8.660048 50 38 31 
314.666998 -282.008521 1.806192 47 32 28 
315.767934 -294.404274 6.284778 177 156 151 
314.994295 -103.239791 3.112778 52 37 33 
316.969969 -199.130712 0.215488 183 161 158 
317.638790 -311.229578 5.681934 179 159 155 
322.216794 -392.576126 2.530172 50 38 31 
318.130361 -387.558636 18.688494 183 161 158 
322.316023 -99.091879 5.187660 186 168 165 
323.682911 -102.863560 3.582963 182 164 161 
324.240838 -188.255310 4.771551 176 156 153 
324.470421 -310.107231 7.398241 177 157 154 
325.094356 -291.434727 5.248172 182 162 159 
327.257438 -284.395924 1.347937 176 158 155 
327.447286 -116.913087 5.340549 46 36 31 
332.158426 -397.929539 7.243269 48 34 27 
333.947824 -317.043427 2.875852 45 30 25 
333.947824 -317.043427 2.875852 45 30 25 
334.255867 -280.813812 4.064685 46 28 26 
333.798906 -378.238843 8.382086 47 32 28 
333.798906 -378.238843 8.382086 47 32 28 
349.498726 -256.903958 38.090990 176 154 151 
103.880657 -252.147856 174.979728 187 173 175 
93.358172 -392.351273 1.095146 18 15 16 
98.506513 -392.612513 3.358901 93 94 96 
98.506513 -392.612513 3.358901 93 94 96 
101.542065 -386.773134 4.892774 11 6 5 
101.542065 -386.773134 4.892774 11 6 5 
107.049821 -376.899935 4.176050 20 15 14 
121.108502 -389.259229 5.507514 14 11 10 
126.985470 -374.542354 7.022952 16 7 7 
135.739486 -384.332532 20.708384 93 87 90 
156.720891 -374.379039 9.165032 16 8 10 
162.797584 -376.536057 39.117414 48 43 44 
168.280605 -377.040543 35.840786 21 13 15 
173.579391 -378.199115 49.829084 82 78 81 
175.419504 -377.448361 52.038844 85 80 79 
183.350033 -381.799025 29.559291 102 92 92 
188.250407 -375.506276 20.530407 80 70 68 
190.891254 -376.767799 34.321937 76 71 70 
192.395973 -379.453038 18.730848 20 12 12 
192.695557 -396.621961 24.754714 19 11 11 
190.616779 -377.755783 121.656974 93 85 85 
197.398401 -387.709406 23.442094 110 96 94 
195.075275 -361.626071 134.035467 174 158 156 
201.243500 -377.182107 119.786975 29 22 19 
213.244181 -396.001978 21.703646 113 104 101 
213.244181 -396.001978 21.703646 113 104 101 
215.735340 -361.947249 135.326045 176 157 156 
215.735340 -361.947249 135.326045 176 157 156 
215.811673 -371.342377 135.500239 39 30 27 
225.787051 -362.291689 136.371425 42 31 28 
226.321084 -371.483434 134.015308 168 151 152 
226.321084 -371.483434 134.015308 168 151 152 
294.903608 -215.397380 5.811526 46 34 27 
294.903608 -215.397380 5.811526 46 34 27 
299.623111 -201.236674 3.862450 183 156 154 
299.623111 -201.236674 3.862450 183 156 154 
301.389479 -185.805317 3.527668 51 38 34 
301.389479 -185.805317 3.527668 51 38 34 
291.469858 -285.751140 15.659904 45 32 28 
312.936552 -88.232965 5.253657 50 36 34 
307.244928 -211.371482 6.365939 175 155 152 
299.387278 -290.085070 13.580171 176 158 155 
299.387278 -290.085070 13.580171 176 158 155 
296.130864 -321.239105 22.673177 50 35 31 
291.993167 -383.038469 26.849598 50 33 27 
291.993167 -383.038469 26.849598 50 33 27 
303.840949 -301.791415 13.464373 181 161 158 
313.057429 -247.146702 1.210196 176 155 149 
306.181604 -292.236024 17.257536 46 31 27 
306.181604 -292.236024 17.257536 46 31 27 
317.955980 -194.838999 3.412631 50 36 32 
317.955980 -194.838999 3.412631 50 36 32 
298.901151 -390.501947 27.831738 173 156 150 
310.637758 -305.769077 8.385451 184 162 159 
312.211755 -286.863794 13.304652 47 32 28 
323.509006 -203.180974 6.328083 45 34 31 
313.413592 -299.302772 18.198234 178 157 151 
326.464192 -208.535088 0.422897 179 157 154 
326.464192 -208.535088 0.422897 179 157 154 
319.554814 -288.676600 5.565202 51 33 30 
315.713248 -315.283793 15.467879 179 160 154 
306.975968 -390.916304 27.800733 48 33 29 
306.975968 -390.916304 27.800733 48 33 29 
331.922690 -178.481557 3.907687 44 31 27 
332.562677 -216.524913 3.061484 42 32 27 
322.044010 -305.587553 13.735452 177 159 156 
323.952287 -312.604613 12.054408 178 157 154 
318.616772 -397.415239 20.006918 50 38 31 
332.582980 -284.955422 12.782939 46 27 26 
320.286242 -392.073563 32.145640 179 159 156 
332.249867 -320.905249 12.403938 46 29 26 
332.249867 -320.905249 12.403938 46 29 26 
330.811037 -383.041963 23.656389 47 32 28 
7.798713 -194.981142 1.466272 35 27 27 
7.798713 -194.981142 1.466272 35 27 27 
81.544112 -375.174492 4.747760 19 15 14 
81.544112 -375.174492 4.747760 19 15 14 
99.006739 -393.677393 6.858815 92 93 95 
99.006739 -393.677393 6.858815 92 93 95 
107.245711 -377.059853 3.272816 20 15 14 
117.672622 -272.399169 119.101657 48 37 34 
136.254115 -381.495445 1.109517 92 86 89 
193.011489 -395.445928 20.016732 19 11 10 
197.679568 -386.682568 19.304551 111 97 95 
197.679568 -386.682568 19.304551 111 97 95 
198.369655 -395.084602 19.125941 21 13 13 
198.369655 -395.084602 19.125941 21 13 13 
213.213628 -395.795253 22.148002 113 104 101 
213.213628 -395.795253 22.148002 113 104 101 
227.792301 -301.457287 126.938857 51 38 34 
232.202929 -240.503475 124.517544 76 55 52 
294.627442 -109.987070 0.280127 50 37 33 
296.767688 -94.941800 1.334409 184 165 164 
296.767688 -94.941800 1.334409 184 165 164 
294.813577 -216.030489 7.209149 46 34 27 
294.813577 -216.030489 7.209149 46 34 27 
299.903101 -201.180820 3.578923 183 156 154 
301.425199 -186.417352 4.385450 51 38 34 
299.834905 -288.452324 11.052518 176 158 155 
315.413184 -101.144344 0.015083 52 36 33 
315.413184 -101.144344 0.015083 52 36 33 
315.413184 -101.144344 0.015083 52 36 33 
307.530425 -211.116173 5.733192 176 155 152 
306.226936 -291.348401 15.442940 45 31 24 
306.226936 -291.348401 15.442940 45 31 24 
311.651578 -248.750461 5.620668 176 155 149 
316.561481 -205.862720 1.024298 178 156 151 
312.601884 -285.542762 10.528296 47 32 28 
307.816695 -388.977757 21.781291 48 33 29 
307.816695 -388.977757 21.781291 48 33 29 
308.222412 -381.925369 23.684739 52 38 31 
315.544809 -314.634917 14.786355 179 159 154 
325.675269 -210.012217 3.465160 179 157 154 
325.675269 -210.012217 3.465160 179 157 154 
331.466990 -200.791999 3.945794 45 32 29 
323.913201 -293.744440 10.447605 181 161 158 
325.420752 -287.564230 9.029179 177 158 155 
332.004707 -217.233182 4.566765 42 32 27 
332.004707 -217.233182 4.566765 42 32 27 
323.957405 -311.622838 10.128639 178 157 154 
318.244686 -388.395951 18.591486 184 162 159 
318.682790 -396.248580 18.131698 50 38 31 
333.301210 -283.000221 8.271200 44 28 25 
332.169401 -319.950500 10.869978 46 30 26 
331.197967 -381.416084 19.612097 47 32 28 
331.197967 -381.416084 19.612097 47 32 28 
51.305883 -200.627618 7.725431 162 150 150 
81.130271 -374.317305 1.487985 20 15 14 
81.130271 -374.317305 1.487985 20 15 14 
98.990167 -393.554001 5.691549 92 94 96 
101.776788 -387.148192 4.978500 11 6 5 
101.776788 -387.148192 4.978500 11 6 5 
107.569391 -377.623969 5.920902 20 15 14 
108.265149 -384.685076 4.239377 94 91 92 
108.265149 -384.685076 4.239377 94 91 92 
114.957612 -395.378990 6.187423 13 10 11 
114.957612 -395.378990 6.187423 13 10 11 
121.430867 -389.576005 5.608086 14 11 10 
183.731591 -379.756471 20.856065 103 93 93 
192.647059 -378.847558 17.234546 21 13 13 
193.090726 -394.956102 17.088948 19 11 11 
197.859482 -386.128267 17.030597 112 98 96 
198.578020 -394.618300 16.952710 21 14 12 
213.616745 -395.022897 18.624340 113 106 101 
213.616745 -395.022897 18.624340 113 106 101 
294.967059 -215.783240 6.841880 46 34 27 
294.967059 -215.783240 6.841880 46 34 27 
301.631338 -186.088405 3.925592 51 38 34 
301.631338 -186.088405 3.925592 51 38 34 
307.864819 -108.948633 1.363882 187 168 167 
302.328065 -206.670609 0.495866 46 31 27 
302.328065 -206.670609 0.495866 46 31 27 
315.372655 -101.482605 0.574224 52 36 33 
315.372655 -101.482605 0.574224 52 36 33 
300.162533 -287.738840 9.529748 176 158 155 
307.525120 -210.988404 5.722338 176 156 153 
303.967183 -300.657160 12.053420 181 161 158 
324.309883 -100.939714 0.427959 182 164 161 
316.353987 -200.243903 2.348303 182 160 157 
300.457733 -387.590654 17.902645 173 156 150 
312.662018 -285.251288 10.263921 47 32 28 
314.714420 -296.103395 10.530937 177 156 150 
325.515425 -210.119250 3.952319 178 156 153 
325.515425 -210.119250 3.952319 178 156 153 
317.049526 -304.424808 10.756648 46 32 25 
317.049526 -304.424808 10.756648 46 32 25 
317.049526 -304.424808 10.756648 46 32 25 
317.049526 -304.424808 10.756648 46 32 25 
316.208868 -313.539725 11.909424 179 160 154 
308.372145 -388.112893 18.753462 48 33 29 
308.372145 -388.112893 18.753462 48 33 29 
309.021883 -380.637657 18.862515 52 38 31 
332.104411 -177.853508 2.736549 45 32 28 
331.611178 -200.500797 3.342903 45 31 29 
321.938683 -304.434839 12.305402 181 163 160 
332.290312 -216.519111 3.373446 43 33 28 
325.655600 -286.902107 7.713521 176 158 155 
323.740325 -311.521311 10.648764 178 157 154 
316.992479 -388.306922 20.001550 185 164 158 
333.187430 -282.894245 8.607869 46 27 26 
332.205341 -319.501020 10.196786 45 30 24 
331.746077 -380.482823 16.628008 47 32 28 
4.288017 -177.538047 0.755107 35 30 31 
4.611822 -111.243034 0.819689 30 27 28 
4.611822 -111.243034 0.819689 30 27 28 
5.242979 -105.211807 5.189669 141 138 139 
12.244951 -104.452480 2.808721 28 25 25 
13.446166 -113.016299 2.886616 141 138 139 
13.446166 -113.016299 2.886616 141 138 139 
13.446166 -113.016299 2.886616 141 138 139 
15.751561 -100.955059 7.712795 143 138 139 
15.751561 -100.955059 7.712795 143 138 139 
19.520407 -103.006454 1.316878 25 22 21 
20.034215 -82.257012 2.289325 27 24 25 
42.117261 -255.671017 10.374078 157 141 142 
89.227076 -364.277652 22.595642 15 12 13 
92.653290 -352.692937 66.189506 162 150 150 
89.307643 -366.541506 3.720067 15 9 12 
93.842524 -344.423558 77.669997 40 32 27 
94.443548 -359.893152 52.163082 13 13 13 
87.467466 -189.618391 77.684205 134 126 128 
91.317998 -204.886910 88.118939 173 158 161 
104.201563 -323.918930 77.676774 147 125 127 
91.243502 -161.550838 85.757420 169 157 159 
107.276652 -366.745682 20.183979 10 10 10 
93.591353 -171.752108 79.018237 32 28 27 
93.591353 -171.752108 79.018237 32 28 27 
93.745686 -152.605328 82.327912 37 29 29 
93.745686 -152.605328 82.327912 37 29 29 
95.223181 -165.481358 86.530915 167 155 155 
95.223181 -165.481358 86.530915 167 155 155 
91.047130 -88.582611 5.758015 158 147 147 
115.130363 -368.720744 3.825610 67 62 63 
115.130363 -368.720744 3.825610 67 62 63 
116.129376 -322.446693 76.257601 50 37 33 
118.768859 -368.387378 27.395735 80 77 78 
118.883001 -370.958900 1.542401 62 59 60 
106.041294 -155.759541 89.980725 170 156 154 
122.846517 -368.674805 14.845249 78 75 76 
122.846517 -368.674805 14.845249 78 75 76 
103.076246 -85.652543 6.915147 30 25 24 
129.801067 -366.599440 32.872786 88 83 84 
129.801067 -366.599440 32.872786 88 83 84 
116.859127 -166.192497 88.253790 171 156 157 
134.457151 -370.280103 19.676634 15 15 15 
134.844192 -366.224040 43.583514 89 89 89 
115.468936 -89.322782 6.964627 159 148 145 
123.411739 -86.449626 10.947861 34 26 26 
123.411739 -86.449626 10.947861 34 26 26 
151.897812 -369.194464 29.415902 19 11 13 
152.372326 -368.216503 10.821637 100 95 96 
156.186136 -368.852214 10.180148 18 13 14 
156.461598 -363.337813 42.487374 19 14 15 
157.549018 -329.528245 75.301441 180 164 162 
161.358606 -369.776689 8.650655 37 29 31 
149.919744 -165.350908 88.163815 43 32 29 
149.919744 -165.350908 88.163815 43 32 29 
149.718311 -154.390863 87.065183 175 161 159 
149.718311 -154.390863 87.065183 175 161 159 
166.954216 -370.508234 18.735579 86 81 82 
167.280401 -372.924705 16.744226 19 11 13 
172.865949 -370.485569 14.825137 81 77 80 
160.924128 -155.402132 89.353537 42 31 28 
160.924128 -155.402132 89.353537 42 31 28 
177.062645 -373.889221 11.036023 19 11 11 
177.894138 -371.764762 12.941869 85 80 79 
177.894138 -371.764762 12.941869 85 80 79 
180.941632 -370.614556 6.102513 15 11 11 
179.479451 -365.146047 72.158763 18 14 17 
176.898812 -286.256989 86.050720 195 178 179 
172.059276 -166.031774 90.177399 44 34 29 
172.059276 -166.031774 90.177399 44 34 29 
185.211310 -372.936288 33.382329 16 10 13 
172.253791 -155.105440 88.970241 181 162 161 
172.253791 -155.105440 88.970241 181 162 161 
185.341664 -368.790464 41.249349 16 11 12 
188.193217 -371.387573 11.368401 11 2 6 
181.119501 -92.355767 12.109149 180 163 164 
197.759108 -383.377870 0.578692 103 94 91 
197.759108 -383.377870 0.578692 103 94 91 
197.453252 -373.100315 8.370743 12 6 5 
190.892957 -329.301510 84.017789 187 168 167 
182.966209 -159.704828 95.518687 43 32 29 
182.966209 -159.704828 95.518687 43 32 29 
186.732116 -98.725255 14.034329 114 98 96 
189.635375 -280.439303 94.519658 177 158 157 
194.852058 -262.481924 91.397960 189 168 167 
194.026955 -169.621744 95.764240 43 33 28 
207.819456 -371.796299 23.710330 17 13 9 
193.678966 -162.543502 100.336375 184 166 163 
208.519437 -374.863972 23.373355 13 4 3 
207.836548 -368.590497 33.559689 16 10 9 
212.967700 -368.474768 44.077674 22 13 10 
212.967700 -368.474768 44.077674 22 13 10 
213.343103 -365.950432 75.317126 101 93 95 
214.014267 -362.135236 87.985666 39 24 21 
222.382064 -374.211282 21.282001 74 59 60 
218.786016 -371.618147 54.928925 21 11 11 
218.794852 -91.052863 11.289459 177 163 161 
218.266146 -357.739897 86.387546 38 31 28 
217.965534 -348.234695 88.863944 176 157 156 
217.965534 -348.234695 88.863944 176 157 156 
223.595197 -371.398281 51.573892 99 89 89 
223.595197 -371.398281 51.573892 99 89 89 
221.228435 -365.079254 82.516264 29 15 13 
217.272156 -252.016452 92.521387 53 38 34 
217.272156 -252.016452 92.521387 53 38 34 
228.252553 -375.845474 30.060080 27 18 15 
216.606397 -155.825997 91.535680 184 169 165 
232.444233 -376.939026 7.359207 35 21 19 
224.869344 -88.302624 14.143407 43 32 29 
224.869344 -88.302624 14.143407 43 32 29 
225.606449 -96.326146 15.765158 44 30 28 
234.426991 -367.674213 16.571500 53 40 37 
225.772250 -363.751782 85.575660 56 40 38 
229.250523 -347.681428 86.819401 44 32 30 
229.250523 -347.681428 86.819401 44 32 30 
229.721792 -358.017736 85.154363 167 150 151 
229.721792 -358.017736 85.154363 167 150 151 
228.686992 -305.383019 90.446139 51 37 35 
228.394326 -273.340348 91.673752 193 170 169 
228.394326 -273.340348 91.673752 193 170 169 
228.414339 -262.623940 92.140136 51 38 34 
226.607219 -213.112972 99.780786 183 164 162 
226.607219 -213.112972 99.780786 183 164 162 
227.601743 -200.176441 95.161636 50 37 33 
227.350548 -159.271883 95.884957 47 37 32 
232.360304 -265.027228 87.917233 44 31 27 
234.611739 -361.101942 86.685080 167 150 151 
234.611739 -361.101942 86.685080 167 150 151 
240.166154 -363.418310 53.018228 167 147 146 
233.918210 -260.349730 93.922167 157 142 138 
234.703740 -212.999911 96.212105 111 90 89 
234.682306 -205.824166 98.448213 104 83 82 
233.573802 -169.008384 102.454776 135 117 114 
240.960914 -237.890595 86.750691 181 159 156 
259.582333 -322.185768 54.080219 181 159 156 
290.747462 -120.965647 19.378010 46 35 28 
291.536808 -284.928492 13.703897 44 31 27 
292.625438 -220.013611 16.528504 47 32 28 
292.625438 -220.013611 16.528504 47 32 28 
293.115400 -105.576758 20.144628 183 165 162 
293.115400 -105.576758 20.144628 183 165 162 
296.823900 -207.487879 17.376793 184 157 155 
296.823900 -207.487879 17.376793 184 157 155 
295.917712 -320.768321 21.508510 52 37 33 
297.763641 -194.402381 21.003540 53 38 34 
297.565362 -216.621505 22.220308 46 31 27 
300.890710 -388.013385 14.967844 174 157 151 
302.937422 -121.343366 22.837479 186 167 166 
300.943656 -104.407253 33.728925 175 156 155 
301.966244 -303.941092 20.771674 182 162 159 
304.639551 -216.465394 17.717462 180 158 155 
305.747020 -112.083521 18.560435 187 169 166 
305.726728 -207.976837 16.252301 50 32 29 
305.945801 -159.884790 22.418294 176 154 151 
309.440985 -98.831347 21.730721 50 36 34 
308.036686 -309.403564 19.695974 184 164 161 
310.015788 -114.936598 23.410761 53 35 32 
310.015788 -114.936598 23.410761 53 35 32 
310.015788 -114.936598 23.410761 53 35 32 
310.651338 -123.505952 23.415614 182 163 162 
309.060643 -388.427009 15.305292 48 33 29 
309.060643 -388.427009 15.305292 48 33 29 
313.012946 -304.731245 6.120955 177 157 154 
311.247409 -287.944722 16.643488 50 35 31 
312.891610 -212.668187 15.999136 180 158 153 
311.888497 -209.005514 21.116121 184 162 159 
312.718245 -399.371950 9.995153 47 34 30 
314.713536 -201.042575 16.951703 47 34 30 
314.713536 -201.042575 16.951703 47 34 30 
309.390903 -304.320232 33.796741 180 159 153 
316.486570 -121.248847 23.057548 43 25 22 
315.680446 -306.725300 16.454912 49 35 28 
315.680446 -306.725300 16.454912 49 35 28 
315.680446 -306.725300 16.454912 49 35 28 
315.680446 -306.725300 16.454912 49 35 28 
316.583313 -112.252840 27.817620 184 166 163 
314.161385 -295.996584 27.208084 51 33 30 
318.292711 -115.328482 24.949849 182 164 161 
318.023871 -103.535812 35.954589 49 36 32 
306.458124 -398.452198 67.008091 179 158 155 
321.886551 -217.221372 19.611559 180 158 155 
321.886551 -217.221372 19.611559 180 158 155 
322.207685 -304.891897 11.447920 177 159 156 
317.000906 -398.290659 25.006047 56 39 33 
321.793276 -129.841314 28.227667 48 35 31 
321.793276 -129.841314 28.227667 48 35 31 
322.917951 -313.370576 14.171496 181 159 156 
325.163306 -113.095338 27.551278 49 36 31 
