ply
format ascii 1.0
element vertex 1096
property float x
property float y
property float z
property uchar red
property uchar green
property uchar blue
end_header
247.762888 -331.616700 31.215999 176 148 116 
247.762888 -331.616700 31.215999 176 148 116 
253.926231 -328.219249 35.806791 131 96 70 
127.616827 -386.956932 73.374726 164 128 92 
336.996239 -280.937480 8.796139 41 27 20 
321.761523 -287.416968 4.020813 45 22 15 
321.761523 -287.416968 4.020813 45 22 15 
124.747311 -386.467690 70.878970 162 125 93 
130.182225 -382.832737 85.933556 88 52 19 
231.693829 -324.555861 89.838872 166 134 106 
303.300541 -285.498603 0.983110 164 129 117 
198.931033 -335.991821 113.604807 187 146 109 
143.603560 -363.324826 86.838744 89 55 20 
239.792057 -310.953762 103.474469 59 27 1 
239.792057 -310.953762 103.474469 59 27 1 
117.575699 -374.126471 28.757776 121 89 61 
233.534948 -311.496744 59.815508 158 127 100 
233.534948 -311.496744 59.815508 158 127 100 
297.825889 -273.580968 3.145912 183 144 117 
138.040812 -351.993379 98.491201 182 152 125 
150.806100 -344.490293 114.569561 141 110 72 
141.102504 -346.425767 106.541994 177 145 119 
103.817485 -362.932098 50.247111 145 113 85 
174.405378 -325.595504 131.774790 131 92 41 
239.506127 -290.208573 74.942272 146 112 83 
239.506127 -290.208573 74.942272 146 112 83 
116.265691 -353.101556 92.015492 181 146 114 
118.370333 -351.725538 88.669494 180 147 114 
173.980408 -323.448613 109.220181 130 89 38 
125.015482 -340.381884 96.217209 142 109 81 
215.404893 -292.401521 76.791779 159 126 97 
202.316876 -297.235828 79.406600 165 133 111 
124.801719 -337.235035 112.378214 140 110 88 
198.514451 -298.346664 109.727099 143 111 85 
187.770690 -301.689903 106.500247 130 104 82 
187.770690 -301.689903 106.500247 130 104 82 
198.655874 -294.887549 104.880637 197 169 153 
201.254087 -293.058616 109.330726 195 167 150 
188.335253 -298.757985 105.966453 190 164 151 
187.759241 -298.782115 114.585555 134 110 92 
194.796484 -295.135804 113.613355 141 121 111 
194.796484 -295.135804 113.613355 141 121 111 
206.921414 -287.069769 117.742856 195 166 150 
187.868697 -295.930922 102.832562 183 159 147 
187.868697 -295.930922 102.832562 183 159 147 
68.988515 -354.989584 80.273998 138 101 61 
119.795704 -328.929710 114.497817 215 187 167 
119.795704 -328.929710 114.497817 215 187 167 
201.236592 -287.071995 121.453372 141 118 111 
121.695085 -325.199532 108.000583 197 165 145 
201.263391 -284.947978 119.077032 189 170 162 
120.422780 -324.369843 118.711717 210 181 165 
125.884707 -321.745526 131.513353 154 123 112 
206.582907 -279.545555 98.288464 51 22 8 
206.582907 -279.545555 98.288464 51 22 8 
180.875296 -293.301111 119.203304 149 122 100 
202.678574 -281.817192 114.716481 166 146 136 
205.829996 -277.202606 103.842404 62 34 7 
205.829996 -277.202606 103.842404 62 34 7 
198.946873 -280.770959 114.627278 110 90 80 
198.946873 -280.770959 114.627278 110 90 80 
110.446690 -324.285594 95.420241 191 163 134 
196.817504 -280.563878 113.937396 171 153 145 
187.780601 -285.033348 118.855854 161 138 129 
187.780601 -285.033348 118.855854 161 138 129 
202.662298 -276.555487 109.975589 125 97 74 
198.671733 -278.483982 115.065628 173 154 141 
199.799359 -277.529448 110.418764 169 148 130 
196.385393 -278.207098 114.093095 77 59 49 
123.162815 -314.673766 120.120530 189 162 146 
194.773426 -278.005089 128.363466 192 169 163 
162.152430 -293.119565 107.272551 132 87 40 
198.774898 -274.246886 115.144336 186 163 146 
124.593508 -311.210568 112.786969 200 171 142 
175.944031 -284.260667 109.008734 200 177 172 
201.308053 -271.107749 114.029556 165 135 108 
201.308053 -271.107749 114.029556 165 135 108 
120.321056 -311.633094 109.798932 87 58 34 
176.366130 -284.429980 131.035083 160 136 125 
196.953739 -272.238124 115.442107 183 161 144 
193.901174 -274.080633 123.912284 110 88 82 
195.266030 -273.667083 133.134882 110 88 82 
118.996272 -308.920949 100.706484 142 114 81 
118.996272 -308.920949 100.706484 142 114 81 
198.980117 -269.514075 126.461641 126 99 75 
175.903735 -280.019513 117.803518 195 168 152 
148.399352 -292.615628 115.264007 97 61 25 
144.984173 -293.540629 120.448799 195 166 142 
197.283638 -266.955029 117.641985 173 142 109 
187.894214 -272.614147 139.053088 185 165 155 
189.303480 -269.559495 116.363137 128 99 82 
237.557629 -240.145138 77.974473 109 75 47 
239.464570 -238.515997 73.570996 109 77 49 
237.687563 -239.031657 69.443868 158 126 98 
49.494842 -332.123025 43.953079 138 106 70 
126.031297 -294.575026 105.525640 127 88 45 
124.029904 -294.194371 103.451676 178 142 100 
99.058624 -304.369617 79.222025 93 60 27 
99.058624 -304.369617 79.222025 93 60 27 
79.560503 -309.014690 86.675174 175 144 112 
29.171836 -328.309174 15.124255 197 169 163 
137.906660 -280.299866 113.831613 174 138 96 
306.306926 -184.270393 1.742100 41 27 25 
306.306926 -184.270393 1.742100 41 27 25 
126.726329 -282.736918 110.009311 113 77 40 
126.726329 -282.736918 110.009311 113 77 40 
126.726329 -282.736918 110.009311 113 77 40 
127.760984 -283.184030 124.125819 174 139 100 
104.030588 -283.383845 85.882719 110 76 48 
80.880567 -281.156065 96.263651 131 100 62 
238.331210 -190.873394 3.895072 142 108 98 
313.158505 -151.326190 15.427117 149 127 124 
313.158505 -151.326190 15.427117 149 127 124 
53.382066 -275.017028 40.460895 136 100 63 
237.554198 -177.584143 13.420714 174 150 148 
230.541008 -178.710972 6.317357 38 29 21 
230.541008 -178.710972 6.317357 38 29 21 
62.082139 -251.281709 36.994714 145 109 67 
194.998840 -178.554703 21.213767 56 31 10 
127.340032 -188.521488 10.627823 147 109 72 
100.704791 -194.319391 17.748094 84 50 22 
121.657886 -179.930992 5.989039 58 34 18 
88.955891 -193.443168 2.600872 170 147 133 
93.335648 -188.715855 8.449318 62 41 35 
264.655895 -105.361089 32.008507 142 123 122 
52.808586 -201.293984 10.731839 191 163 157 
204.851118 -117.771181 1.386732 39 29 24 
11.675035 -202.882467 0.121456 187 163 158 
11.675035 -202.882467 0.121456 187 163 158 
112.470839 -152.327088 11.644237 182 154 148 
13.220842 -195.140923 5.773845 62 43 37 
13.220842 -195.140923 5.773845 62 43 37 
215.761741 -95.722737 1.497846 157 138 132 
215.761741 -95.722737 1.497846 157 138 132 
8.605038 -195.064211 12.573958 62 40 37 
195.870478 -84.650666 5.673683 128 118 113 
195.870478 -84.650666 5.673683 128 118 113 
160.660282 -97.526310 1.493488 166 141 139 
264.827510 -46.534272 10.748000 137 121 119 
104.240192 -111.364525 8.919855 173 150 149 
104.240192 -111.364525 8.919855 173 150 149 
124.943310 -99.570069 36.645939 165 148 146 
98.281533 -92.169371 26.187835 169 146 145 
19.644556 -120.339768 3.003863 60 42 39 
19.644556 -120.339768 3.003863 60 42 39 
56.390255 -100.371861 14.812257 180 154 149 
2.512232 -119.739202 0.777520 60 39 33 
14.492762 -113.976468 9.258410 177 158 152 
14.492762 -113.976468 9.258410 177 158 152 
18.377541 -103.837764 1.889007 56 38 35 
13.026052 -104.999374 8.086885 54 35 29 
18.927316 -100.163096 18.477546 179 156 153 
18.927316 -100.163096 18.477546 179 156 153 
110.256662 -14.652906 8.855467 147 137 132 
92.649309 -13.538914 4.515200 150 136 132 
109.892770 -4.900064 5.948654 33 24 21 
101.727795 -4.948770 0.643058 35 25 22 
101.727795 -4.948770 0.643058 35 25 22 
107.009955 -4.264062 5.961644 33 24 21 
0.263700 -55.082041 25.718263 180 154 149 
1.558996 -2.972368 2.981466 169 149 146 
1.558996 -2.972368 2.981466 169 149 146 
280.908287 -399.525653 6.263680 199 162 155 
335.420577 -376.613984 3.065851 59 37 32 
335.420577 -376.613984 3.065851 59 37 32 
246.069154 -379.307539 50.474519 158 123 92 
276.807868 -346.387111 42.351370 137 101 59 
306.271491 -314.812377 2.315099 47 27 19 
38.685790 -386.802788 2.003235 194 166 158 
38.685790 -386.802788 2.003235 194 166 158 
139.881635 -343.003187 113.733289 139 109 87 
140.854288 -342.840203 109.243286 176 145 120 
174.977999 -325.059247 119.032436 200 163 137 
172.325062 -322.343372 125.581847 131 92 41 
125.759025 -336.703141 102.332946 144 110 80 
321.448866 -286.643468 5.365070 45 22 15 
175.573051 -318.418878 121.618747 131 88 39 
118.396934 -327.995982 94.142699 140 109 85 
289.021482 -279.020799 11.329335 165 122 70 
176.106421 -303.072584 105.681360 146 104 50 
189.131247 -297.239310 119.642003 129 102 79 
188.544633 -294.981999 111.970252 191 165 152 
193.467335 -291.931905 110.179703 148 127 118 
199.614554 -290.178492 103.216999 196 168 150 
52.693557 -329.570993 56.229261 137 105 69 
199.323056 -286.429286 107.822904 151 124 116 
199.728246 -281.609055 114.085148 186 166 158 
163.238906 -289.104944 116.420020 132 86 39 
186.274354 -281.696142 114.813218 168 145 136 
186.274354 -281.696142 114.813218 168 145 136 
27.913235 -328.547124 12.527156 197 169 163 
27.913235 -328.547124 12.527156 197 169 163 
147.465145 -289.184361 114.957305 95 60 26 
143.756813 -290.030508 119.039705 196 167 143 
143.756813 -290.030508 119.039705 196 167 143 
197.658982 -275.007690 113.456070 174 155 142 
175.367966 -280.887978 110.247381 187 163 158 
198.516670 -274.202326 107.360531 170 148 130 
195.382637 -274.773131 112.713645 76 58 47 
158.648890 -282.454768 123.212137 177 140 100 
174.912246 -276.465957 117.101225 196 169 150 
193.437759 -269.831325 127.889879 109 88 82 
193.480759 -267.548296 116.634682 183 156 145 
183.368209 -269.651088 117.150050 186 166 156 
188.307424 -266.050711 115.315695 128 100 83 
181.942131 -265.994190 114.356325 132 104 84 
336.774979 -216.628747 0.481501 47 26 25 
336.774979 -216.628747 0.481501 47 26 25 
77.657445 -279.009200 87.286672 132 101 63 
8.568231 -296.460660 3.659623 70 47 40 
312.150282 -210.086436 1.081667 166 148 145 
320.264280 -207.225223 0.657473 163 142 141 
312.487050 -201.955746 4.661796 44 29 30 
23.300094 -269.078676 4.084639 194 166 160 
306.594005 -184.082596 3.046124 41 27 25 
53.914778 -251.757260 8.844645 145 109 68 
121.499825 -219.670990 15.830407 101 68 42 
230.042839 -178.228206 1.370639 37 28 20 
194.096775 -177.658230 15.901473 58 32 10 
262.671829 -155.116061 5.934291 159 137 134 
128.251720 -188.518683 16.061147 147 109 72 
86.623899 -199.839323 22.539952 63 38 29 
100.921144 -193.954193 19.634768 84 50 22 
90.564613 -189.614792 7.732084 56 37 31 
98.730185 -185.996118 4.115447 185 156 148 
122.457155 -180.033166 10.254636 57 35 18 
131.064609 -177.264505 11.428927 174 144 123 
5.391016 -204.944213 2.561383 74 51 45 
5.391016 -204.944213 2.561383 74 51 45 
334.019635 -114.806237 6.387153 30 19 16 
334.019635 -114.806237 6.387153 30 19 16 
5.552916 -194.858407 3.266652 63 41 38 
313.763728 -109.483846 6.531911 139 125 123 
299.811379 -112.888618 9.619910 32 23 20 
11.326887 -186.889958 0.264685 185 164 158 
330.171623 -101.986102 4.945059 133 123 118 
320.940598 -101.673406 5.037757 33 20 16 
320.940598 -101.673406 5.037757 33 20 16 
320.940598 -101.673406 5.037757 33 20 16 
110.101592 -151.532279 2.901531 181 153 147 
306.021307 -100.163437 1.840334 33 21 20 
227.683493 -115.921783 3.009028 39 28 25 
227.683493 -115.921783 3.009028 39 28 25 
302.308301 -95.175598 3.175044 144 130 128 
206.197396 -118.641808 12.232444 39 29 24 
192.401060 -119.264761 7.270803 31 18 14 
214.163660 -111.449235 1.178388 154 139 135 
331.569634 -81.055291 6.101792 30 21 18 
196.978986 -111.691743 0.100333 143 127 125 
223.081085 -102.618267 1.659325 153 139 135 
207.491735 -104.467355 3.913378 150 137 133 
207.491735 -104.467355 3.913378 150 137 133 
229.325289 -94.243798 1.795704 39 24 20 
216.591250 -96.570801 8.619601 157 138 132 
216.591250 -96.570801 8.619601 157 138 132 
222.625566 -94.790344 9.359287 37 27 22 
207.459608 -92.311513 2.932539 149 132 126 
207.459608 -92.311513 2.932539 149 132 126 
223.421036 -85.953410 4.832552 149 134 130 
109.567972 -113.071890 3.678318 174 147 147 
88.293963 -116.305835 4.201537 54 38 36 
229.963951 -78.714043 3.369481 37 22 18 
196.405383 -85.178165 10.884848 129 119 114 
196.405383 -85.178165 10.884848 129 119 114 
108.816380 -107.087021 10.480996 48 27 26 
101.774303 -104.514773 6.500412 176 148 148 
192.674722 -77.943816 2.146958 27 16 13 
192.373316 -78.092623 2.661623 27 16 13 
21.098533 -121.102837 7.961218 60 42 39 
122.973492 -97.656049 28.375413 166 148 146 
99.704721 -98.195742 6.264695 47 33 31 
2.762693 -120.143175 1.942426 60 40 34 
12.935183 -113.610999 4.675225 177 158 152 
3.104863 -112.525801 0.667241 59 42 36 
3.104863 -112.525801 0.667241 59 42 36 
124.840104 -80.518250 1.342500 45 29 27 
124.840104 -80.518250 1.342500 45 29 27 
54.165177 -99.358591 7.262771 180 154 149 
268.978408 -55.132504 61.806854 137 121 119 
18.592241 -104.379810 3.229178 55 37 34 
12.186431 -104.891417 5.429127 54 35 29 
15.780865 -98.878496 9.073836 176 156 153 
15.780865 -98.878496 9.073836 176 156 153 
334.625998 -14.375969 1.440067 29 17 17 
334.625998 -14.375969 1.440067 29 17 17 
321.410782 -10.915773 2.387810 133 122 119 
321.410782 -10.915773 2.387810 133 122 119 
328.038179 -9.177245 7.854873 26 19 14 
328.038179 -9.177245 7.854873 26 19 14 
330.458817 -1.849840 5.252814 132 121 118 
330.458817 -1.849840 5.252814 132 121 118 
320.673631 -0.361431 5.852722 135 121 119 
320.673631 -0.361431 5.852722 135 121 119 
304.103398 -2.855809 6.454880 132 124 121 
227.822211 -16.036056 12.824147 31 22 19 
192.875231 -20.282369 11.246250 24 12 12 
213.779507 -11.141143 9.994312 133 121 121 
213.184236 -1.346789 2.279663 137 122 123 
205.966234 -3.640769 8.864931 29 17 17 
205.966234 -3.640769 8.864931 29 17 17 
193.349399 -3.555532 12.812618 24 14 14 
123.255414 -19.012668 7.059871 35 27 22 
123.255414 -19.012668 7.059871 35 27 22 
85.847814 -21.768750 6.506617 43 28 24 
85.847814 -21.768750 6.506617 43 28 24 
110.675031 -15.261578 11.037748 147 137 132 
93.211035 -14.307423 7.027244 150 136 132 
93.211035 -14.307423 7.027244 150 136 132 
119.086946 -6.442801 8.273441 145 135 130 
110.891704 -6.206169 10.877782 33 24 21 
118.220239 -0.403935 14.097540 147 132 128 
16.208398 -18.514886 1.906861 49 31 28 
13.898172 -7.671621 3.328273 168 152 150 
13.898172 -7.671621 3.328273 168 152 150 
10.236609 -5.015541 3.457514 168 148 145 
319.587597 -399.927874 2.639864 190 161 157 
319.587597 -399.927874 2.639864 190 161 157 
280.913172 -399.534733 8.630108 198 161 154 
335.555460 -377.049062 0.421975 60 37 32 
335.555460 -377.049062 0.421975 60 37 32 
303.365175 -325.600707 7.595781 176 138 122 
140.830717 -343.496419 117.048595 129 99 77 
306.398062 -315.101075 0.238724 47 27 19 
320.291287 -302.753686 3.156687 44 26 18 
60.658038 -357.028583 53.066639 138 101 61 
172.016839 -328.091811 101.070768 202 165 139 
171.686110 -323.942036 120.660349 131 92 41 
174.350171 -320.369747 113.454883 130 88 38 
297.008131 -299.635276 6.861414 67 27 0 
118.543650 -328.747223 93.803567 139 109 85 
118.870004 -323.872106 98.597968 197 166 145 
291.490660 -289.402688 15.825019 165 124 76 
188.194767 -298.897916 112.240777 132 105 83 
197.195165 -296.264471 104.432311 144 113 88 
289.139820 -279.430006 9.227450 165 122 68 
193.981752 -292.744783 112.142883 145 124 115 
193.981752 -292.744783 112.142883 145 124 115 
187.664959 -293.515454 104.772857 184 160 148 
187.664959 -293.515454 104.772857 184 160 148 
198.802699 -283.081179 106.610569 185 165 157 
142.201597 -291.623203 110.663735 196 167 143 
197.173305 -278.685411 106.684604 112 92 83 
172.980238 -282.121815 106.876731 80 55 46 
195.011039 -275.992709 109.177730 75 57 46 
174.260317 -277.719035 112.485338 196 169 151 
191.855598 -271.780513 115.219561 113 91 85 
282.693554 -250.790025 9.553048 127 87 25 
192.290136 -268.973380 108.215011 179 152 141 
183.109261 -270.801925 114.750741 185 165 155 
6.697616 -305.891102 5.708826 195 170 163 
181.293682 -267.195393 109.556188 132 104 84 
336.715123 -216.857573 3.038209 47 26 25 
336.715123 -216.857573 3.038209 47 26 25 
54.372257 -273.906678 44.818871 137 101 64 
299.154771 -214.714767 1.673541 34 20 18 
22.578421 -268.849592 2.180742 194 166 160 
62.933837 -249.991307 41.414421 144 108 66 
306.675766 -184.184842 3.293714 42 28 26 
306.675766 -184.184842 3.293714 42 28 26 
192.909698 -177.370467 7.050756 57 30 9 
126.924927 -188.207543 9.325585 147 109 72 
88.702799 -193.436583 1.635804 171 148 134 
262.469026 -155.629517 8.156742 160 136 134 
3.124682 -196.176065 0.935968 61 39 36 
3.124682 -196.176065 0.935968 61 39 36 
333.934813 -114.940833 5.694813 30 19 16 
333.934813 -114.940833 5.694813 30 19 16 
321.060029 -110.921855 4.782810 137 123 119 
109.959964 -151.471258 1.350902 182 154 148 
299.682592 -112.859725 7.440043 32 23 20 
313.727691 -109.451282 4.120600 139 125 123 
330.085402 -102.187635 5.002319 133 123 118 
320.831723 -101.732393 3.504739 33 20 16 
320.831723 -101.732393 3.504739 33 20 16 
320.831723 -101.732393 3.504739 33 20 16 
227.500786 -115.858282 1.937475 39 28 25 
205.261818 -117.859856 3.605000 39 29 24 
192.446966 -119.510869 8.109362 30 17 13 
302.072149 -95.126216 0.564254 145 131 129 
302.072149 -95.126216 0.564254 145 131 129 
302.424754 -94.584862 0.704737 143 129 127 
213.945180 -111.411391 0.229776 155 140 136 
213.945180 -111.411391 0.229776 155 140 136 
213.945180 -111.411391 0.229776 155 140 136 
308.820171 -89.961561 0.246938 142 127 123 
308.820171 -89.961561 0.246938 142 127 123 
197.388116 -112.126184 4.202793 144 128 126 
319.017478 -86.713739 0.089594 28 16 12 
319.017478 -86.713739 0.089594 28 16 12 
222.907419 -102.659472 1.205354 152 139 135 
207.278477 -104.431892 2.526483 151 137 133 
207.278477 -104.431892 2.526483 151 137 133 
228.975678 -94.217045 0.739108 37 23 19 
216.289172 -96.497688 6.949114 157 138 132 
216.289172 -96.497688 6.949114 157 138 132 
109.537381 -112.987241 3.262975 175 148 148 
207.256642 -92.303803 2.206107 149 132 126 
207.256642 -92.303803 2.206107 149 132 126 
102.391556 -110.360445 1.364902 173 150 149 
102.391556 -110.360445 1.364902 173 150 149 
223.062824 -85.818119 2.846203 149 134 130 
223.062824 -85.818119 2.846203 149 134 130 
108.289384 -106.998557 8.938199 48 28 27 
19.202264 -120.404069 2.281448 59 41 38 
19.202264 -120.404069 2.281448 59 41 38 
101.195150 -104.392422 4.614227 174 147 147 
101.195150 -104.392422 4.614227 174 147 147 
195.074565 -84.045296 1.538065 128 118 113 
3.198031 -120.011437 2.758569 60 40 34 
12.192563 -113.273578 2.645910 176 157 151 
192.112575 -78.042045 1.753379 27 16 13 
192.888230 -78.124345 3.678035 27 16 13 
318.417985 -47.774913 4.103114 135 121 119 
91.874123 -89.143455 0.641077 170 147 146 
10.582327 -104.216554 0.757067 54 35 29 
92.104579 -88.613091 1.669459 169 146 145 
104.293102 -83.342747 1.037044 47 31 29 
84.265909 -80.170994 0.042292 51 35 33 
84.265909 -80.170994 0.042292 51 35 33 
334.383725 -14.710525 1.607576 29 17 17 
334.383725 -14.710525 1.607576 29 17 17 
301.890761 -14.903583 2.173674 30 21 18 
321.215274 -11.140285 1.982054 133 122 119 
321.215274 -11.140285 1.982054 133 122 119 
327.776057 -8.712249 4.104275 27 21 16 
314.493912 -8.046473 0.092067 28 19 16 
314.493912 -8.046473 0.092067 28 19 16 
330.320027 -1.831334 3.530107 132 121 118 
50.713940 -53.019503 4.771227 171 147 142 
303.838423 -2.494218 3.297462 132 125 122 
227.520518 -15.944713 11.451788 31 22 19 
192.675916 -20.501775 11.329929 25 13 13 
213.716239 -11.556404 11.114215 133 121 121 
198.071198 -12.341624 9.686355 124 112 112 
198.071198 -12.341624 9.686355 124 112 112 
123.117547 -19.048546 6.808595 35 27 22 
205.500636 -3.574293 7.366758 28 16 16 
85.299371 -21.540215 4.941015 43 28 24 
85.299371 -21.540215 4.941015 43 28 24 
110.054980 -14.962212 9.021121 147 137 132 
110.054980 -14.962212 9.021121 147 137 132 
115.544434 -11.868742 3.710386 34 24 19 
92.148064 -13.683252 3.338475 150 136 132 
92.148064 -13.683252 3.338475 150 136 132 
117.994889 -5.606315 3.875862 146 136 131 
103.284680 -7.118849 8.230089 36 26 21 
109.786799 -5.441178 6.696590 33 24 21 
15.984670 -18.543268 1.801099 49 31 28 
15.984670 -18.543268 1.801099 49 31 28 
117.504054 -0.030615 11.621631 146 131 127 
2.602776 -14.233847 1.173452 169 151 148 
10.281086 -12.432963 4.391875 53 32 31 
10.281086 -12.432963 4.391875 53 32 31 
11.098985 -5.350459 5.781319 168 148 145 
10.844697 -0.198976 11.015604 177 157 154 
315.450345 -396.624785 1.707385 94 68 63 
280.674751 -399.959910 5.699504 199 162 155 
285.529145 -378.184344 8.752430 177 140 122 
335.914712 -316.864328 4.855450 43 23 20 
335.914712 -316.864328 4.855450 43 23 20 
313.242684 -303.872036 1.509341 172 137 127 
175.165592 -303.052937 100.928855 146 104 51 
322.049501 -287.118314 4.419289 46 22 15 
303.609285 -285.355347 1.325304 163 129 118 
193.149872 -291.400941 109.221371 144 124 114 
188.979787 -291.060801 115.623977 189 166 154 
199.153618 -285.813602 107.770067 145 120 112 
298.142716 -273.420713 0.768813 182 143 116 
298.477837 -272.781668 5.538234 182 143 116 
186.078562 -280.975155 114.948982 162 139 130 
186.078562 -280.975155 114.948982 162 139 130 
174.628530 -280.460205 106.766187 196 172 167 
187.837237 -265.438642 113.366588 129 99 81 
336.872163 -216.763453 4.032118 47 26 25 
336.872163 -216.763453 4.032118 47 26 25 
55.471787 -250.633583 13.906006 145 109 67 
299.204074 -214.748639 0.412387 34 20 18 
329.868737 -210.015471 1.826152 158 142 138 
312.236221 -210.265889 2.086768 166 148 145 
305.830780 -207.989668 2.577571 46 27 26 
305.830780 -207.989668 2.577571 46 27 26 
328.508132 -201.713364 2.178171 48 26 28 
312.418642 -202.048370 4.535324 42 27 28 
303.678875 -201.282827 1.582817 173 144 147 
118.966815 -219.568608 3.543332 100 67 41 
306.792421 -184.242127 4.756319 42 28 26 
306.792421 -184.242127 4.756319 42 28 26 
238.569110 -190.742977 5.090927 143 109 99 
84.124559 -199.532590 12.769115 63 38 29 
88.717073 -193.476322 1.786475 171 147 134 
97.797471 -185.814615 0.281817 184 155 149 
97.797471 -185.814615 0.281817 184 155 149 
188.907423 -174.269226 0.734516 46 17 2 
5.729179 -194.602101 4.131638 62 40 37 
121.417653 -179.726197 5.593725 58 34 19 
131.253348 -174.936411 5.653369 179 150 139 
110.141562 -151.368691 3.130343 182 154 148 
334.164383 -114.711091 3.938310 30 19 16 
334.164383 -114.711091 3.938310 30 19 16 
321.204749 -111.099948 7.499749 137 123 119 
299.727115 -112.591458 6.019410 32 23 20 
299.727115 -112.591458 6.019410 32 23 20 
327.744936 -108.443558 1.725318 29 19 14 
313.889264 -109.560386 5.987913 141 125 123 
227.757141 -115.988007 3.115174 39 28 25 
205.554037 -117.877153 4.940598 39 29 24 
192.376658 -119.299822 7.007203 30 17 13 
330.243926 -102.477394 8.898199 133 123 118 
321.012648 -101.966518 6.406165 33 20 16 
321.012648 -101.966518 6.406165 33 20 16 
321.012648 -101.966518 6.406165 33 20 16 
214.323971 -111.643551 2.720773 154 139 135 
214.323971 -111.643551 2.720773 154 139 135 
214.323971 -111.643551 2.720773 154 139 135 
197.297118 -111.871778 2.673198 144 128 126 
205.263131 -110.379825 1.693975 35 25 20 
205.263131 -110.379825 1.693975 35 25 20 
122.197802 -115.990914 5.156843 45 32 28 
302.579144 -96.083256 9.960402 145 131 129 
223.220734 -102.837825 3.293950 151 138 134 
88.338927 -115.946725 4.695764 53 37 35 
108.868223 -112.715103 0.941041 174 147 147 
309.114522 -90.376540 4.168076 141 126 122 
309.114522 -90.376540 4.168076 141 126 122 
18.581415 -120.251620 0.264483 59 41 38 
18.581415 -120.251620 0.264483 59 41 38 
319.302912 -87.046004 3.521634 28 17 12 
319.302912 -87.046004 3.521634 28 17 12 
102.633558 -110.498051 2.647460 174 150 149 
216.605952 -96.623764 9.363469 157 138 132 
229.984398 -94.818177 8.625799 38 23 19 
221.835820 -94.083091 2.558063 38 28 23 
221.835820 -94.083091 2.558063 38 28 23 
107.503139 -106.487582 5.387140 46 25 24 
100.195954 -103.845860 0.138948 176 148 148 
207.922895 -92.908383 7.793373 149 132 126 
207.922895 -92.908383 7.793373 149 132 126 
207.922895 -92.908383 7.793373 149 132 126 
11.379341 -112.967189 0.025435 176 157 151 
11.379341 -112.967189 0.025435 176 157 151 
93.402910 -102.696923 0.141756 57 35 32 
296.992681 -78.519243 1.637031 35 21 19 
223.452619 -86.083808 5.675280 149 134 130 
118.573686 -94.700605 8.256747 166 147 146 
195.921630 -84.671899 5.745431 130 118 113 
195.921630 -84.671899 5.745431 130 118 113 
52.804050 -98.722790 2.452815 180 154 149 
105.140243 -92.870479 3.799128 48 35 31 
105.140243 -92.870479 3.799128 48 35 31 
13.675982 -97.956699 2.646885 176 156 153 
84.471494 -80.181196 0.661688 51 35 33 
334.608732 -15.278859 5.387741 29 17 17 
334.608732 -15.278859 5.387741 29 17 17 
321.478115 -11.408595 4.157162 133 122 119 
321.478115 -11.408595 4.157162 133 122 119 
328.016992 -8.260781 3.123451 28 22 17 
328.016992 -8.260781 3.123451 28 22 17 
314.680886 -8.442997 2.624529 29 20 17 
192.437257 -19.674308 8.292641 23 11 11 
330.453497 -1.923113 5.109583 132 121 118 
330.453497 -1.923113 5.109583 132 121 118 
304.165249 -2.584860 4.669446 131 124 121 
197.981086 -11.888620 8.730167 125 113 113 
122.672554 -18.304934 4.209957 35 27 22 
85.003964 -21.078895 3.107636 43 28 24 
109.108198 -13.830718 4.412275 147 137 132 
109.108198 -13.830718 4.412275 147 137 132 
92.219194 -13.507752 3.273375 150 136 132 
92.219194 -13.507752 3.273375 150 136 132 
205.712335 -3.435780 8.029314 29 17 17 
205.712335 -3.435780 8.029314 29 17 17 
118.001260 -5.344521 3.517804 146 136 131 
102.052659 -5.772064 2.520652 35 26 22 
109.591746 -4.991478 5.649448 33 24 21 
13.787999 -7.489065 3.466552 170 154 152 
214.988767 -393.854415 12.472220 127 89 59 
335.300558 -376.784616 0.977895 59 38 32 
335.300558 -376.784616 0.977895 59 38 32 
285.236345 -378.220923 5.787278 177 140 122 
305.968686 -327.683729 3.933111 175 136 122 
336.827925 -324.437650 1.131676 173 145 137 
312.409900 -303.213646 1.654594 172 136 126 
320.326073 -296.484320 1.099405 164 136 128 
321.895417 -287.002676 2.104221 45 22 15 
321.895417 -287.002676 2.104221 45 22 15 
303.455985 -285.202835 0.495187 165 130 118 
289.057938 -278.331966 14.695318 167 123 69 
298.038086 -272.970785 3.890573 183 144 117 
22.408712 -269.193353 0.816832 194 166 160 
55.820431 -250.539838 14.903223 144 108 66 
336.711661 -216.519118 1.904492 47 26 25 
336.711661 -216.519118 1.904492 47 26 25 
329.840819 -209.702610 0.877913 159 141 138 
329.840819 -209.702610 0.877913 159 141 138 
312.167109 -209.985961 1.418421 166 148 145 
320.628478 -207.003785 0.952581 163 143 141 
305.781455 -207.694850 2.468619 46 27 26 
305.781455 -207.694850 2.468619 46 27 26 
312.564284 -201.830594 1.541025 42 27 28 
303.603374 -201.030231 0.422525 173 144 147 
322.532614 -194.124697 1.956338 44 30 28 
321.962071 -193.288230 4.685674 42 29 26 
238.508557 -190.492327 4.346467 143 109 99 
306.679324 -183.891933 2.858623 42 28 26 
306.679324 -183.891933 2.858623 42 28 26 
83.957540 -199.434643 11.852708 63 38 29 
51.024410 -200.898713 4.233078 191 163 157 
88.462040 -193.553679 0.302814 172 148 136 
193.138193 -177.085104 8.452338 50 24 6 
204.735062 -167.902242 12.756336 178 148 147 
110.273911 -151.338017 2.700580 182 154 148 
334.130814 -114.491462 7.162362 30 19 16 
321.325344 -110.698988 9.126141 136 123 118 
299.789182 -112.184236 5.751347 32 23 20 
314.006242 -109.349016 9.207486 138 124 122 
192.711198 -119.122181 8.751429 31 18 14 
227.766241 -115.710075 3.434249 39 28 25 
227.766241 -115.710075 3.434249 39 28 25 
205.591411 -117.600592 5.687478 38 28 23 
214.568346 -111.527985 4.222998 154 139 135 
330.256964 -102.119456 10.644312 133 123 118 
197.746031 -111.862845 5.842391 141 126 122 
197.746031 -111.862845 5.842391 141 126 122 
321.038613 -101.527007 7.100777 33 20 16 
321.038613 -101.527007 7.100777 33 20 16 
306.160779 -100.004307 2.826799 34 20 20 
306.160779 -100.004307 2.826799 34 20 20 
88.472757 -116.170843 4.694793 54 38 36 
19.064947 -120.439837 1.351007 58 41 37 
19.064947 -120.439837 1.351007 58 41 37 
329.031223 -94.424088 0.652060 134 124 119 
109.527062 -112.799682 2.554543 173 147 147 
109.527062 -112.799682 2.554543 173 147 147 
207.765959 -104.403979 5.714776 150 137 133 
207.765959 -104.403979 5.714776 150 137 133 
223.343839 -102.615815 3.660465 152 138 134 
2.553641 -119.899065 0.438910 61 40 34 
214.214638 -102.409856 3.099156 41 27 23 
214.214638 -102.409856 3.099156 41 27 23 
302.560617 -95.574682 10.424762 144 130 128 
102.921819 -110.641151 1.753740 173 149 149 
102.921819 -110.641151 1.753740 173 149 149 
309.140715 -89.921725 3.548301 141 126 122 
309.140715 -89.921725 3.548301 141 126 122 
11.826427 -113.195929 0.873224 176 157 151 
229.278838 -93.779307 0.144830 38 23 19 
101.650642 -104.266043 5.912111 175 148 148 
208.076259 -92.557733 7.707244 150 133 127 
105.784509 -100.024830 0.685396 48 32 30 
314.662977 -82.743271 1.436736 134 121 117 
314.662977 -82.743271 1.436736 134 121 117 
331.484611 -80.702696 6.901781 30 21 18 
10.628941 -104.302058 0.586400 55 36 30 
223.546228 -85.709440 5.355613 149 134 130 
297.182288 -78.112895 3.780809 35 21 19 
196.198306 -84.548574 7.975789 130 120 115 
92.632393 -89.119265 2.970183 170 147 146 
124.651562 -80.219642 0.240090 45 29 27 
124.651562 -80.219642 0.240090 45 29 27 
84.713771 -80.233077 0.948289 51 35 33 
84.713771 -80.233077 0.948289 51 35 33 
334.678958 -14.621252 5.550679 29 17 17 
334.678958 -14.621252 5.550679 29 17 17 
302.289418 -14.704242 5.042106 30 21 18 
321.620989 -11.070509 5.420317 133 122 119 
321.620989 -11.070509 5.420317 133 122 119 
192.817043 -19.580065 10.401206 24 12 12 
328.150199 -8.103115 5.208188 27 21 16 
328.150199 -8.103115 5.208188 27 21 16 
314.361683 -8.809606 5.873623 31 22 19 
314.361683 -8.809606 5.873623 31 22 19 
314.822463 -8.385239 5.144093 30 21 18 
84.980787 -20.868606 2.666554 43 28 24 
322.585766 -4.218391 5.339201 136 121 122 
322.585766 -4.218391 5.339201 136 121 122 
122.563560 -17.959805 2.844478 35 27 22 
330.606088 -1.595094 6.685806 132 121 118 
214.051102 -10.871527 11.961490 133 121 121 
304.321483 -2.222626 5.793122 131 124 121 
320.056830 -1.365712 13.193354 135 121 119 
109.733343 -13.968411 6.481318 147 137 132 
93.098262 -13.874671 6.289133 151 136 132 
15.701267 -18.090442 0.289348 49 31 28 
15.701267 -18.090442 0.289348 49 31 28 
3.259537 -14.419781 2.402537 169 151 148 
118.102027 -5.070023 3.186706 146 136 131 
102.931834 -5.980232 5.044327 35 25 21 
102.931834 -5.980232 5.044327 35 25 21 
9.309014 -11.541939 0.672267 53 32 31 
9.309014 -11.541939 0.672267 53 32 31 
109.701436 -4.694752 5.409318 33 24 21 
9.655675 -4.005057 0.344888 167 147 144 
325.777347 -398.441304 16.312486 66 42 37 
325.777347 -398.441304 16.312486 66 42 37 
319.140851 -398.147377 9.958365 189 160 156 
319.140851 -398.147377 9.958365 189 160 156 
332.918430 -395.448610 5.985951 68 43 36 
314.955946 -393.316077 14.576064 65 41 36 
280.693108 -398.537110 9.205864 200 163 156 
297.362015 -395.995352 3.179056 66 41 36 
321.349592 -388.783818 14.552160 65 40 38 
206.333729 -383.713180 81.523749 157 117 86 
320.838713 -383.588160 2.628399 189 164 157 
302.815197 -383.735881 1.800477 192 166 161 
302.815197 -383.735881 1.800477 192 166 161 
247.493660 -371.261576 80.135417 157 124 93 
269.780207 -372.326760 54.621597 154 103 49 
194.213635 -377.175938 70.864636 177 143 101 
199.625058 -364.174234 88.245698 84 46 14 
197.929490 -366.077017 68.870727 139 99 69 
198.516090 -361.703075 79.858424 94 56 21 
139.009247 -367.931288 76.729615 92 58 23 
325.006745 -349.304064 7.225531 181 146 139 
142.289106 -358.468734 88.043361 102 68 33 
52.086298 -375.903449 50.954547 194 166 158 
52.086298 -375.903449 50.954547 194 166 158 
215.570561 -349.125375 55.809847 186 148 111 
20.734075 -376.958716 22.281759 68 44 39 
137.483495 -342.411428 96.531556 177 144 118 
56.034336 -359.345042 36.494533 136 102 60 
262.923529 -328.809491 43.673317 134 102 74 
122.891255 -335.505918 93.291735 143 109 80 
290.436100 -316.246870 60.606946 201 160 114 
296.017737 -321.702943 16.613019 185 138 78 
167.206385 -323.420391 99.941162 133 92 40 
287.251192 -315.384014 33.309022 137 95 50 
306.538385 -313.770127 7.704014 58 30 22 
112.840360 -329.713241 72.043866 142 111 87 
319.923745 -309.903835 6.214003 167 137 129 
327.339026 -308.773982 4.898696 174 140 133 
293.523936 -309.452458 28.934963 165 121 74 
313.247414 -308.738114 2.159262 57 29 21 
115.297252 -322.849915 85.814896 194 164 139 
112.258611 -322.158447 89.592341 210 180 166 
249.341383 -298.351896 119.027436 184 150 127 
188.542450 -312.903376 61.044986 196 158 116 
195.299295 -315.379950 33.848080 66 33 3 
313.530992 -302.703489 8.337617 181 143 134 
172.689569 -311.528789 78.076897 180 141 98 
319.644861 -301.629982 6.304805 50 29 21 
319.644861 -301.629982 6.304805 50 29 21 
320.434409 -301.093331 5.240909 50 29 23 
320.434409 -301.093331 5.240909 50 29 23 
171.314787 -309.327384 82.500922 133 89 42 
171.314787 -309.327384 82.500922 133 89 42 
307.898386 -296.880093 3.705764 180 142 131 
115.486664 -310.298012 79.770248 202 172 145 
118.263409 -313.460928 41.403158 144 101 56 
23.365431 -330.841483 0.614931 195 170 161 
23.365431 -330.841483 0.614931 195 170 161 
186.303373 -295.895926 106.858950 139 112 89 
186.303373 -295.895926 106.858950 139 112 89 
320.509821 -290.870787 2.545938 177 143 136 
194.160572 -295.275633 88.555299 149 114 88 
112.733231 -306.907754 77.207328 140 112 79 
185.193609 -294.668621 94.106659 192 166 153 
322.033792 -286.123793 6.594047 53 28 21 
321.414293 -284.836447 14.578871 54 29 22 
291.801118 -284.852633 42.928652 171 128 79 
191.676190 -290.464628 99.880484 143 114 103 
191.676190 -290.464628 99.880484 143 114 103 
310.207258 -286.205238 5.976145 54 29 22 
310.207258 -286.205238 5.976145 54 29 22 
197.475724 -288.803656 104.854454 196 164 149 
185.599896 -290.996430 97.839795 195 166 155 
185.599896 -290.996430 97.839795 195 166 155 
223.877728 -293.441178 20.428413 63 30 4 
210.859183 -292.059251 43.771904 164 133 102 
134.484677 -297.169656 78.087192 115 73 35 
174.247654 -290.669177 88.473768 141 109 87 
197.136517 -285.160346 97.167343 153 125 116 
16.629553 -318.120902 1.199608 71 46 37 
138.059878 -290.279254 94.679633 202 171 147 
141.034196 -290.249927 86.141563 98 61 27 
289.251059 -276.100712 32.056585 171 131 72 
118.917739 -292.306493 78.704750 123 84 41 
116.106597 -291.374558 81.615046 90 58 17 
182.654244 -281.429318 94.308593 171 140 132 
182.654244 -281.429318 94.308593 171 140 132 
113.734141 -291.360559 78.872723 199 167 127 
169.995207 -280.291522 103.070112 167 142 133 
115.465496 -288.429135 80.670560 182 147 108 
173.391625 -278.679438 103.291934 195 171 166 
170.083921 -279.794749 95.435672 85 60 51 
192.476047 -277.026930 91.422937 175 154 146 
166.518947 -278.427237 97.187157 191 162 138 
166.518947 -278.427237 97.187157 191 162 138 
33.797029 -304.369716 7.199927 137 103 68 
193.636785 -274.618717 90.190065 164 144 134 
192.881264 -273.182388 100.258122 80 62 52 
172.045228 -274.869667 103.452996 196 170 152 
199.967568 -275.726271 47.570943 144 113 82 
118.072085 -280.749312 87.557840 179 144 105 
121.005462 -278.991256 92.392261 103 67 30 
134.638475 -275.714486 94.864617 129 90 47 
264.544912 -261.044104 74.994971 172 137 106 
115.942838 -277.133942 93.643489 174 141 103 
116.430772 -277.687865 86.037729 105 69 32 
182.846451 -266.178366 119.939077 186 166 156 
187.468099 -267.722116 90.155385 190 165 156 
133.313205 -274.476407 90.134941 160 122 83 
83.754295 -287.311877 11.317053 138 107 74 
131.683732 -273.628839 90.314142 110 72 35 
97.828836 -277.555597 90.194927 163 133 106 
65.537820 -282.473801 61.864882 200 169 136 
177.517611 -265.539913 90.777311 139 109 87 
252.115234 -258.531908 57.817438 162 127 94 
250.879904 -257.643077 66.019126 110 76 43 
250.879904 -257.643077 66.019126 110 76 43 
1.804767 -293.749893 7.742333 194 168 163 
140.684372 -268.840682 85.068718 99 60 19 
105.546074 -276.857369 42.618093 152 116 79 
144.845576 -267.368061 91.613969 195 156 115 
253.199313 -256.243377 63.154285 118 85 53 
4.850571 -292.043362 6.642373 191 167 162 
4.850571 -292.043362 6.642373 191 167 162 
254.338773 -256.191126 58.998655 170 137 104 
209.072086 -257.333259 89.261220 184 146 114 
92.899219 -277.116337 8.131938 90 55 22 
210.468914 -256.219437 75.936567 183 148 115 
282.268087 -249.251218 19.245849 133 86 23 
307.799154 -246.959344 3.834861 160 124 114 
216.279881 -251.681208 74.944970 183 149 114 
59.184340 -270.509907 65.450585 133 98 59 
201.552867 -250.085881 93.804961 169 134 100 
203.865404 -249.099949 95.410857 136 102 67 
203.865404 -249.099949 95.410857 136 102 67 
279.568027 -236.210768 21.012039 134 89 35 
61.003027 -248.490582 35.592913 147 108 67 
299.375062 -213.646924 13.868143 42 25 19 
329.561199 -208.950156 11.096334 170 149 146 
329.561199 -208.950156 11.096334 170 149 146 
312.181274 -209.455564 7.721736 172 154 151 
320.481245 -206.645203 3.268926 178 148 147 
335.994515 -200.791130 2.272173 54 36 33 
328.263654 -200.845969 6.668907 49 25 27 
196.958835 -214.479857 15.690255 93 62 38 
303.621411 -200.524685 7.590164 178 150 150 
125.192375 -217.779999 33.181305 113 80 54 
322.225357 -193.234913 16.164226 47 28 27 
243.534677 -199.023401 9.303432 116 74 36 
286.086928 -189.416057 24.032134 179 151 145 
306.798601 -183.885495 1.724146 47 32 28 
306.798601 -183.885495 1.724146 47 32 28 
224.550705 -183.581904 9.265529 158 126 109 
224.550705 -183.581904 9.265529 158 126 109 
227.587397 -182.816498 11.269410 134 108 98 
99.530335 -193.484559 11.965911 86 52 21 
230.611518 -177.856302 6.721603 45 31 24 
230.611518 -177.856302 6.721603 45 31 24 
91.013555 -193.200490 12.383905 171 147 134 
96.586158 -191.847146 7.590609 55 25 2 
131.035047 -187.375937 25.477374 149 112 73 
192.491071 -177.276264 1.562618 57 27 5 
4.019767 -195.968957 3.154072 66 44 41 
4.019767 -195.968957 3.154072 66 44 41 
4.019767 -195.968957 3.154072 66 44 41 
188.938011 -173.950021 4.024393 52 22 9 
187.238179 -170.876148 8.716587 178 155 149 
131.253116 -176.960457 13.729299 177 149 129 
204.533249 -167.211812 10.384244 184 155 151 
11.908671 -186.777012 2.209439 189 165 160 
11.908671 -186.777012 2.209439 189 165 160 
11.908671 -186.777012 2.209439 189 165 160 
313.401335 -149.089040 2.271237 156 134 131 
262.754105 -154.087729 15.966758 170 143 141 
21.961616 -179.007052 11.950105 66 44 41 
217.062645 -150.447884 12.646664 178 153 146 
112.909870 -151.544489 19.581783 185 156 152 
52.724956 -155.489087 1.230142 189 161 155 
158.114584 -143.793552 3.497452 183 155 149 
333.690015 -114.550138 11.489058 36 24 21 
333.690015 -114.550138 11.489058 36 24 21 
321.056435 -110.843667 14.377577 144 129 125 
299.757246 -112.591028 17.012295 35 25 20 
327.630916 -108.782644 14.048327 30 20 15 
327.630916 -108.782644 14.048327 30 20 15 
228.553519 -116.045334 14.099184 44 30 28 
228.553519 -116.045334 14.099184 44 30 28 
206.264554 -117.892360 10.147575 42 30 25 
193.096617 -119.301794 13.424224 36 23 19 
329.928457 -101.344890 2.029018 135 125 120 
320.774414 -101.834444 14.640935 35 22 18 
320.774414 -101.834444 14.640935 35 22 18 
215.613231 -111.923803 15.848717 168 148 145 
221.204678 -109.486012 5.609881 47 29 26 
221.204678 -109.486012 5.609881 47 29 26 
198.796613 -112.298411 16.180928 147 131 127 
198.796613 -112.298411 16.180928 147 131 127 
318.178033 -99.128737 9.992466 25 12 9 
206.927154 -110.773658 13.886021 48 30 27 
328.345828 -97.092396 38.275419 141 128 124 
123.393164 -115.653344 11.098487 55 37 34 
123.393164 -115.653344 11.098487 55 37 34 
208.188317 -104.597125 10.454103 170 143 141 
208.188317 -104.597125 10.454103 170 143 141 
302.483871 -94.476211 6.303620 145 131 129 
302.483871 -94.476211 6.303620 145 131 129 
224.543500 -103.242185 16.974938 158 143 139 
92.121385 -116.640430 19.981965 55 40 36 
92.121385 -116.640430 19.981965 55 40 36 
112.116095 -113.328483 14.735431 178 152 152 
20.373150 -120.703769 5.573859 61 42 36 
20.373150 -120.703769 5.573859 61 42 36 
308.910069 -90.511847 14.373183 142 127 125 
308.910069 -90.511847 14.373183 142 127 125 
104.580594 -110.865073 10.342887 178 154 154 
104.580594 -110.865073 10.342887 178 154 154 
319.133801 -86.720448 9.690089 30 17 13 
319.133801 -86.720448 9.690089 30 17 13 
217.974781 -96.950463 22.310048 168 144 139 
223.140283 -94.676593 14.888160 39 24 21 
314.084783 -82.906075 6.190153 134 121 117 
314.084783 -82.906075 6.190153 134 121 117 
12.364245 -113.424917 2.054442 181 159 153 
12.364245 -113.424917 2.054442 181 159 153 
102.620116 -104.561197 10.679230 181 154 154 
102.620116 -104.561197 10.679230 181 154 154 
331.501667 -80.647571 8.025264 29 23 18 
208.219590 -93.119232 15.363515 163 141 138 
208.219590 -93.119232 15.363515 163 141 138 
208.219590 -93.119232 15.363515 163 141 138 
4.199292 -112.679934 3.437037 61 40 34 
4.199292 -112.679934 3.437037 61 40 34 
96.802367 -102.441199 10.542995 64 44 41 
97.262925 -102.174752 11.378979 47 26 25 
107.158889 -100.514561 8.117708 46 30 28 
107.158889 -100.514561 8.117708 46 30 28 
107.158889 -100.514561 8.117708 46 30 28 
107.158889 -100.514561 8.117708 46 30 28 
107.158889 -100.514561 8.117708 46 30 28 
107.158889 -100.514561 8.117708 46 30 28 
223.821396 -86.052645 10.485594 150 137 133 
99.099378 -97.014451 1.381113 58 39 38 
17.768680 -103.976363 0.792987 56 40 36 
14.176058 -104.975945 10.888369 58 39 33 
56.230514 -99.653691 13.974098 182 156 151 
105.468609 -93.256293 5.722837 51 38 34 
105.468609 -93.256293 5.722837 51 38 34 
197.277041 -85.261053 19.634952 143 126 123 
197.277041 -85.261053 19.634952 143 126 123 
14.089990 -98.228730 2.372393 180 158 155 
14.089990 -98.228730 2.372393 180 158 155 
0.677831 -100.211048 11.224513 54 34 31 
0.677831 -100.211048 11.224513 54 34 31 
0.677831 -100.211048 11.224513 54 34 31 
193.465788 -78.413526 8.175722 33 19 17 
104.531279 -83.257495 1.946328 54 35 34 
87.405803 -81.287851 13.519338 57 37 36 
87.405803 -81.287851 13.519338 57 37 36 
318.832134 -50.249050 33.603470 138 122 120 
158.017177 -52.144245 15.683451 164 139 137 
334.092569 -17.652811 25.643904 29 19 17 
334.092569 -17.652811 25.643904 29 19 17 
302.217925 -16.769784 18.733514 30 21 18 
321.351573 -12.666028 16.037816 134 123 120 
321.351573 -12.666028 16.037816 134 123 120 
327.815381 -10.310357 18.036538 27 21 16 
327.815381 -10.310357 18.036538 27 21 16 
314.173272 -10.872111 18.022137 31 22 19 
314.615822 -10.947973 20.238452 30 21 18 
314.615822 -10.947973 20.238452 30 21 18 
195.856124 -23.386339 37.530590 26 14 14 
228.125475 -16.372575 18.623976 37 23 21 
228.125475 -16.372575 18.623976 37 23 21 
329.916210 -5.238988 29.707843 132 121 118 
304.135800 -4.784270 21.534697 136 125 122 
125.303911 -20.351208 18.349172 40 28 24 
125.303911 -20.351208 18.349172 40 28 24 
319.481750 -2.927110 22.105005 136 122 120 
214.908798 -12.909004 24.397484 135 120 121 
200.095137 -13.643546 22.393298 125 113 113 
200.095137 -13.643546 22.393298 125 113 113 
90.398060 -24.259392 26.435336 45 31 29 
90.398060 -24.259392 26.435336 45 31 29 
112.135274 -16.058407 18.147704 157 147 142 
93.438621 -14.454916 8.020893 158 145 141 
228.200534 -2.985966 12.957228 35 24 21 
213.016022 -0.664986 0.592392 138 123 124 
194.584782 -4.883954 22.839015 26 16 16 
106.462347 -8.934743 21.977223 43 33 28 
106.462347 -8.934743 21.977223 43 33 28 
5.429965 -15.596757 9.083913 166 153 149 
5.429965 -15.596757 9.083913 166 153 149 
112.353218 -7.082670 18.174353 38 29 26 
110.446617 -6.743181 22.239799 40 29 26 
9.494262 -13.727417 10.661311 179 161 158 
12.186064 -13.466562 26.592611 177 157 154 
12.186064 -13.466562 26.592611 177 157 154 
119.633496 -1.513019 23.096372 156 141 137 
100.823767 -2.818224 33.335881 162 142 139 
280.385912 -398.173537 10.912040 200 163 156 
315.017571 -396.368902 1.113984 78 54 49 
100.487009 -393.967947 6.410720 139 106 73 
286.096825 -372.111106 29.907411 182 144 126 
44.207658 -383.085742 20.562353 194 166 158 
44.207658 -383.085742 20.562353 194 166 158 
324.880414 -350.261562 1.795975 181 146 139 
288.700012 -347.415814 23.951106 158 109 42 
165.933252 -328.026079 95.927220 202 170 147 
171.449440 -323.572487 102.088550 203 167 140 
117.245058 -324.844430 93.330181 140 109 90 
117.464363 -324.791046 93.498388 140 109 90 
119.784788 -318.026342 106.166058 198 167 146 
113.508724 -320.072282 95.111154 211 181 167 
291.839770 -317.428204 31.534964 206 162 111 
335.400449 -316.878912 1.535663 53 31 25 
306.466330 -314.665696 1.467512 58 30 22 
174.029509 -309.026226 87.069360 180 141 97 
319.735645 -310.714587 0.641296 167 137 129 
327.197806 -309.009971 2.954378 173 140 132 
177.045823 -295.718555 119.912742 148 106 52 
319.261244 -302.088612 6.527932 50 30 22 
319.261244 -302.088612 6.527932 50 30 22 
186.324507 -294.414716 107.560241 139 112 89 
320.284751 -301.636913 1.106006 50 29 23 
68.210180 -302.022848 65.281495 129 99 60 
192.189134 -288.588901 103.996085 145 116 105 
187.885605 -287.278312 114.203530 193 164 153 
197.767467 -287.033937 107.912396 197 165 150 
197.732532 -287.380741 95.984125 205 174 157 
143.768033 -287.030057 100.784945 95 58 24 
198.045071 -282.721339 104.923649 146 119 110 
172.234061 -285.094261 97.903772 186 155 134 
100.383299 -289.386520 95.769698 88 55 22 
291.652049 -284.257952 43.452993 170 128 80 
321.922260 -286.128972 6.014236 53 28 21 
321.922260 -286.128972 6.014236 53 28 21 
310.125743 -285.718585 9.063873 55 28 22 
310.125743 -285.718585 9.063873 55 28 22 
173.310763 -280.022073 108.252546 189 166 157 
197.783979 -278.223685 107.142263 194 168 162 
184.501258 -278.382620 107.420513 174 143 135 
184.501258 -278.382620 107.420513 174 143 135 
303.241402 -284.663566 3.144698 175 140 123 
171.714222 -277.224495 105.749149 74 50 39 
174.078927 -276.647363 108.113051 199 176 170 
168.551007 -275.416081 109.590995 190 161 138 
288.618500 -277.715090 15.893540 171 131 72 
173.397859 -272.392114 112.187847 196 170 152 
190.492947 -271.337828 107.315239 189 165 160 
298.634882 -270.504235 15.839432 183 146 124 
96.835459 -270.580946 88.026636 193 158 132 
185.779377 -262.800578 107.495943 131 105 87 
55.937548 -271.314002 53.022198 133 98 59 
336.069459 -216.524851 0.631748 53 33 25 
336.069459 -216.524851 0.631748 53 33 25 
299.060349 -214.411287 0.078157 42 25 19 
329.416251 -209.229962 4.422047 171 149 146 
329.416251 -209.229962 4.422047 171 149 146 
120.710720 -218.971771 10.042364 114 81 55 
311.978009 -209.691330 2.804764 172 154 151 
197.591884 -214.100778 20.872002 92 61 37 
328.163082 -201.103181 2.313877 49 25 27 
312.391232 -201.285104 7.169325 48 31 32 
303.414421 -200.716260 2.804042 178 150 150 
322.104256 -193.401453 8.147256 47 28 27 
322.104256 -193.401453 8.147256 47 28 27 
97.543007 -193.864439 2.515749 86 53 22 
306.690454 -183.991220 0.638903 47 32 28 
306.690454 -183.991220 0.638903 47 32 28 
4.727254 -195.159876 0.056262 65 43 40 
188.681193 -172.052862 2.598490 161 134 129 
202.328754 -168.559809 9.588607 179 153 149 
333.643704 -114.298747 5.830142 35 24 21 
333.643704 -114.298747 5.830142 35 24 21 
192.180922 -119.025841 6.090160 36 23 19 
205.447620 -117.504484 2.158853 40 30 25 
227.607810 -115.582123 3.770540 44 30 28 
227.607810 -115.582123 3.770540 44 30 28 
299.478752 -112.094323 8.435752 35 25 20 
320.938255 -110.453100 7.403133 143 128 124 
313.682632 -109.104516 7.476442 147 133 131 
214.394424 -111.368938 4.463851 168 149 146 
214.394424 -111.368938 4.463851 168 149 146 
214.394424 -111.368938 4.463851 168 149 146 
89.111002 -116.103901 6.811236 55 40 36 
197.303127 -111.707131 3.716089 146 131 127 
205.574070 -110.280981 3.025063 49 30 27 
205.574070 -110.280981 3.025063 49 30 27 
109.342984 -112.758499 1.476443 178 153 152 
329.637057 -101.886233 12.703703 136 126 121 
320.625423 -101.387834 7.941152 36 23 19 
320.625423 -101.387834 7.941152 36 23 19 
305.887358 -99.736118 4.263724 34 22 20 
305.887358 -99.736118 4.263724 34 22 20 
223.304465 -102.493885 4.389069 159 144 140 
317.955017 -98.740572 5.799446 23 11 7 
101.169502 -104.130301 3.537450 182 154 154 
4.600634 -104.841990 5.281081 184 163 157 
216.178647 -95.815197 4.883141 168 144 139 
216.178647 -95.815197 4.883141 168 144 139 
229.244656 -93.998488 4.194130 45 26 24 
308.754939 -89.991397 7.375508 142 127 125 
206.863763 -92.518237 4.664257 163 141 138 
206.863763 -92.518237 4.664257 163 141 138 
