ply
format ascii 1.0
element vertex 1101
property float x
property float y
property float z
property uchar red
property uchar green
property uchar blue
end_header
192.832579 -139.601451 41.519767 186 176 171 
184.072127 -121.375342 41.350005 122 102 99 
186.143509 -115.436133 38.638709 101 79 76 
186.208822 -114.897059 29.232083 188 175 171 
119.016574 -2.867853 0.232213 175 156 151 
190.490482 -110.439117 25.274109 60 51 48 
194.874374 -111.006479 22.856704 51 39 39 
197.719967 -105.891039 0.396603 176 160 158 
207.972923 -118.632192 3.680112 28 16 16 
207.972923 -118.632192 3.680112 28 16 16 
324.435771 -307.805076 0.213774 171 155 151 
324.435771 -307.805076 0.213774 171 155 151 
196.961236 -95.289165 5.313264 177 163 156 
227.377335 -114.668212 0.480158 47 34 30 
216.082722 -95.700444 1.159433 182 161 159 
216.082722 -95.700444 1.159433 182 161 159 
207.040639 -8.580480 8.983194 50 32 29 
2.963187 -350.453362 17.794446 174 155 149 
16.415701 -378.886543 0.475695 50 33 27 
16.415701 -378.886543 0.475695 50 33 27 
10.660225 -306.425805 6.255280 173 156 150 
7.750908 -295.358867 11.733568 176 156 153 
7.750908 -295.358867 11.733568 176 156 153 
14.496585 -311.197642 4.465144 173 154 153 
14.496585 -311.197642 4.465144 173 154 153 
19.091743 -296.699706 25.581203 178 158 155 
19.091743 -296.699706 25.581203 178 158 155 
12.244680 -295.576600 5.140992 47 29 21 
12.244680 -295.576600 5.140992 47 29 21 
1.813199 -214.153242 19.727778 179 157 154 
91.192800 -397.322498 10.961821 43 31 25 
10.915145 -209.785928 25.220538 63 41 38 
15.940703 -216.317355 21.333254 178 158 152 
15.940703 -216.317355 21.333254 178 158 152 
92.203730 -381.458430 9.741760 46 31 27 
92.203730 -381.458430 9.741760 46 31 27 
4.432438 -189.821913 13.571392 177 155 152 
6.599643 -194.119612 0.729576 56 37 31 
6.599643 -194.119612 0.729576 56 37 31 
10.816988 -194.255051 8.026430 55 36 30 
25.745738 -219.111638 15.157524 56 36 33 
25.745738 -219.111638 15.157524 56 36 33 
100.025530 -385.586760 1.968546 45 27 24 
100.025530 -385.586760 1.968546 45 27 24 
17.945112 -203.415252 8.536558 174 156 153 
109.344372 -383.610758 8.455797 171 151 148 
13.732174 -184.741155 1.143989 172 155 151 
13.732174 -184.741155 1.143989 172 155 151 
87.234398 -318.526296 11.239242 57 37 34 
103.839264 -348.148347 14.837447 172 153 147 
86.503926 -302.412896 9.977876 56 36 33 
20.378165 -129.214228 27.187686 54 35 29 
135.094870 -378.069907 26.240530 49 30 24 
122.265161 -364.434671 3.836704 140 115 108 
16.855370 -119.361313 21.379123 56 36 33 
16.855370 -119.361313 21.379123 56 36 33 
92.348921 -293.976957 7.676203 176 158 155 
105.982968 -325.629475 2.362496 178 157 151 
14.638433 -110.398980 18.673469 180 158 155 
127.992745 -349.617958 24.791208 146 121 116 
105.916504 -303.634787 18.557332 55 37 34 
21.577822 -117.598877 15.098079 177 157 154 
131.222911 -347.397466 25.268146 29 5 3 
132.985584 -342.253938 34.833276 146 119 117 
108.375931 -296.484981 23.918165 55 37 34 
21.811470 -110.063664 17.610134 56 36 33 
140.749060 -373.695349 13.296781 137 114 113 
22.216876 -119.967804 3.290338 56 37 31 
17.264181 -97.717858 16.182317 178 157 151 
142.259704 -349.965205 36.966125 66 45 43 
136.640116 -338.577304 33.821285 28 3 2 
23.943950 -103.598039 17.182437 183 162 156 
23.943950 -103.598039 17.182437 183 162 156 
27.195823 -108.977690 14.333065 57 36 30 
138.456549 -340.063396 31.339782 88 63 61 
143.466789 -343.962426 39.915736 38 11 9 
145.437050 -347.310599 36.561466 37 12 10 
139.296686 -338.818581 27.387576 126 100 95 
147.922219 -345.295263 40.087053 125 95 94 
146.918092 -339.668574 40.994810 41 17 12 
126.212930 -314.244520 14.633414 33 13 10 
132.739399 -320.789042 24.734949 83 59 57 
150.497510 -347.702072 40.505372 34 7 5 
148.430341 -341.303081 40.847381 139 112 110 
115.393008 -282.126921 21.750808 61 40 34 
136.591636 -323.158065 29.045465 44 17 15 
154.124541 -361.809928 28.018970 64 49 48 
149.317364 -342.807452 38.596768 27 1 1 
121.843283 -300.303148 10.955024 36 21 17 
152.415723 -340.089966 45.504301 36 12 7 
24.902277 -83.853516 9.781332 52 33 27 
24.902277 -83.853516 9.781332 52 33 27 
159.578882 -351.134002 50.447556 68 45 42 
151.051897 -357.898272 16.435595 57 41 39 
83.738977 -215.678919 4.460736 56 34 31 
83.738977 -215.678919 4.460736 56 34 31 
166.134952 -355.046832 60.259861 26 6 3 
162.661070 -349.640229 52.744040 46 15 14 
143.045247 -321.289181 31.363105 126 92 91 
157.119309 -341.483650 44.638380 96 72 67 
160.831441 -349.875287 42.528398 137 105 104 
136.269929 -303.036997 29.403596 82 62 59 
162.803415 -351.819757 41.974954 31 5 3 
162.803415 -351.819757 41.974954 31 5 3 
120.499084 -283.460229 6.762759 34 20 13 
151.030991 -331.137792 33.029694 41 16 14 
151.030991 -331.137792 33.029694 41 16 14 
142.422063 -306.903156 38.427370 36 12 10 
115.912686 -255.244674 27.704598 179 158 152 
164.274899 -354.349777 38.924482 87 61 61 
136.926551 -299.074345 30.568291 85 64 58 
140.332594 -309.699041 24.716852 88 63 61 
166.523580 -373.031494 18.296676 109 97 97 
162.414253 -348.768328 35.796260 129 99 93 
162.414253 -348.768328 35.796260 129 99 93 
89.026195 -167.289014 56.071850 178 154 149 
169.747811 -363.422839 35.972679 97 81 79 
169.747811 -363.422839 35.972679 97 81 79 
143.555296 -315.604017 20.951080 45 14 10 
166.389289 -351.756970 39.909770 35 5 4 
166.389289 -351.756970 39.909770 35 5 4 
170.822480 -366.527705 32.433294 63 47 48 
170.882087 -359.829827 41.268548 66 45 44 
159.307878 -335.185816 38.923221 110 83 81 
167.083286 -344.954741 47.624648 121 91 85 
135.094969 -293.359576 20.452767 46 20 15 
8.607748 -16.947429 8.795267 177 159 156 
159.456703 -337.165463 34.115242 41 12 8 
168.147236 -354.376860 37.050948 85 59 59 
167.494460 -347.850437 42.852775 44 14 8 
138.115926 -295.804634 23.606826 141 110 106 
173.586164 -364.623509 38.151609 11 0 0 
168.972862 -350.236879 41.717666 114 85 81 
169.354219 -358.128483 28.800404 19 1 0 
132.742388 -278.370858 24.855018 143 117 112 
166.749152 -343.102304 40.892047 48 18 13 
173.642764 -361.799486 35.838926 85 66 65 
155.291730 -322.209092 33.237974 63 32 28 
155.291730 -322.209092 33.237974 63 32 28 
139.540431 -294.703024 20.977846 138 108 102 
157.899993 -325.176525 34.609558 146 115 110 
166.573758 -344.229263 35.337721 153 124 120 
178.277229 -365.361823 42.364573 96 77 76 
178.277229 -365.361823 42.364573 96 77 76 
161.186891 -334.266543 32.006420 117 87 81 
151.373719 -303.456775 41.490711 139 108 104 
163.853491 -344.671587 23.919239 18 0 0 
91.067472 -192.636366 6.882983 177 158 152 
181.895341 -364.574314 51.868393 25 6 5 
170.184773 -366.705485 10.213005 45 32 33 
91.525770 -183.874553 16.013183 55 35 32 
91.525770 -183.874553 16.013183 55 35 32 
162.817563 -330.403195 35.380159 106 78 70 
169.989969 -341.196894 42.220017 153 123 122 
14.545161 -5.769305 18.716373 50 30 27 
15.090791 -14.647391 7.894946 50 28 25 
15.090791 -14.647391 7.894946 50 28 25 
176.904142 -352.752806 44.884987 31 12 6 
179.574902 -362.331216 39.534592 115 96 95 
169.996652 -342.746628 35.609549 32 5 3 
169.923539 -336.680222 41.863549 121 94 92 
156.788169 -315.180922 30.014526 156 128 122 
138.205603 -283.359582 15.935966 92 65 63 
22.391801 -21.937737 9.614070 54 34 31 
24.383311 -15.248152 23.071781 178 156 153 
24.383311 -15.248152 23.071781 178 156 153 
171.649919 -346.055872 28.834849 26 9 4 
177.555705 -360.908471 26.720475 23 4 3 
108.814046 -217.503553 8.908702 58 38 35 
182.073443 -357.929852 44.376482 117 98 95 
167.338902 -323.527803 45.551882 157 129 123 
167.338902 -323.527803 45.551882 157 129 123 
157.275701 -310.155621 30.328012 112 85 83 
157.275701 -310.155621 30.328012 112 85 83 
100.660989 -199.087348 5.491461 178 156 153 
101.050742 -194.814827 11.219900 57 37 34 
177.972578 -357.343987 28.241413 118 99 96 
157.132151 -311.999073 24.984819 33 4 3 
190.685730 -370.858487 48.669218 44 25 24 
134.827294 -263.492132 16.584352 49 19 18 
177.183963 -347.437674 31.662097 41 19 16 
132.953292 -262.803256 6.741905 129 100 96 
179.091437 -361.385489 15.954833 103 86 80 
166.412080 -320.641626 31.210473 137 109 101 
177.383834 -358.415085 13.615279 21 2 1 
186.336677 -356.359935 43.255453 76 56 53 
99.575910 -184.177243 4.794008 178 157 151 
180.827913 -364.135807 12.290325 129 111 109 
177.445595 -343.171749 29.627455 46 26 20 
164.860494 -315.562244 27.534640 144 116 111 
178.581147 -345.480296 29.353403 143 122 116 
108.762540 -196.682460 13.512701 58 36 33 
38.043394 -11.164417 44.984535 181 162 156 
181.330741 -345.292366 37.064914 76 56 50 
177.110988 -335.286830 37.202694 43 20 19 
177.110988 -335.286830 37.202694 43 20 19 
160.879733 -314.295398 13.679346 88 60 53 
160.879733 -314.295398 13.679346 88 60 53 
168.599924 -318.519764 31.280744 48 20 12 
182.948941 -361.227650 17.625065 44 26 23 
138.709936 -257.260141 18.633054 87 56 52 
160.492666 -298.220764 30.284285 50 20 14 
182.192571 -350.184289 27.334713 68 47 44 
161.029650 -308.572951 17.565999 121 92 92 
139.388235 -258.474777 17.185371 33 2 1 
178.333865 -339.025005 29.286638 21 2 2 
143.487311 -261.932992 23.679440 88 58 54 
185.171190 -355.957565 26.163023 32 12 14 
180.978979 -342.040769 31.988675 146 127 121 
181.699488 -344.041831 30.287033 54 30 27 
185.824503 -347.739343 38.259457 116 94 90 
199.005809 -393.057440 16.033744 47 29 26 
178.100212 -320.610375 49.636582 107 81 75 
183.385652 -348.262589 27.953649 31 9 7 
118.115451 -211.257467 9.502536 176 157 151 
162.221628 -301.987860 24.217676 27 1 1 
164.863364 -306.098914 26.157992 112 84 84 
172.311708 -324.399596 23.921698 93 68 66 
172.311708 -324.399596 23.921698 93 68 66 
159.446360 -294.038547 24.832420 125 95 89 
159.446360 -294.038547 24.832420 125 95 89 
188.635211 -341.336355 50.332739 77 59 58 
187.501041 -340.692002 47.408020 77 59 58 
178.517746 -338.248732 20.344163 33 13 10 
183.328574 -332.371135 41.610280 103 80 78 
164.024006 -298.232274 27.034893 52 24 20 
164.024006 -298.232274 27.034893 52 24 20 
144.964768 -258.138939 21.031885 47 21 16 
174.665640 -323.223961 25.234355 41 17 12 
148.742180 -263.776371 23.990409 41 12 8 
149.245741 -265.564955 22.740443 100 69 65 
149.245741 -265.564955 22.740443 100 69 65 
165.584330 -300.731193 26.189228 113 87 82 
165.584330 -300.731193 26.189228 113 87 82 
124.842899 -218.715119 7.880865 50 31 25 
165.247095 -292.850052 34.307461 159 128 124 
165.247095 -292.850052 34.307461 159 128 124 
192.463626 -371.113149 12.485460 141 133 127 
129.077351 -225.700425 10.485110 137 111 106 
162.628956 -300.579072 13.385401 55 28 26 
182.388477 -342.448517 16.836628 26 6 3 
177.148480 -319.926374 30.762888 44 18 14 
177.148480 -319.926374 30.762888 44 18 14 
180.521566 -338.148535 15.763888 26 3 2 
178.588537 -322.389186 29.007983 145 120 118 
179.001891 -342.794206 1.500387 78 60 57 
141.902512 -233.995404 33.113400 147 118 114 
160.036342 -284.495138 20.681200 119 89 85 
120.656351 -197.034381 15.305710 181 160 157 
120.656351 -197.034381 15.305710 181 160 157 
121.173366 -192.750001 19.136137 179 157 154 
121.173366 -192.750001 19.136137 179 157 154 
189.665809 -343.642931 30.351769 74 53 52 
199.401931 -349.899405 53.070691 35 14 13 
131.120489 -215.500423 18.738417 46 28 25 
166.428748 -291.509591 26.430222 130 103 101 
175.090608 -316.111331 19.384339 135 110 108 
175.090608 -316.111331 19.384339 135 110 108 
179.659573 -322.043389 25.649964 112 87 85 
179.659573 -322.043389 25.649964 112 87 85 
166.297732 -293.313647 21.139068 31 4 2 
162.847869 -282.510177 21.421249 54 25 22 
162.847869 -282.510177 21.421249 54 25 22 
124.822713 -202.352479 8.168680 54 35 32 
124.822713 -202.352479 8.168680 54 35 32 
187.281411 -341.663497 16.249936 101 82 81 
179.807752 -320.991854 19.933508 128 103 101 
167.749542 -286.950198 27.967746 114 87 85 
184.768693 -334.218208 16.373156 32 10 7 
146.206710 -231.379368 33.804998 54 22 21 
152.384165 -245.391373 33.474963 133 102 98 
181.668449 -306.169012 43.918737 101 75 70 
170.189536 -290.058339 28.456681 24 2 0 
169.500980 -291.892152 23.231413 82 58 55 
204.586792 -385.535202 5.031988 45 29 25 
204.586792 -385.535202 5.031988 45 29 25 
178.818046 -316.132294 17.612376 124 101 100 
180.287151 -324.420449 10.519325 84 59 57 
169.407494 -293.392212 18.294443 42 15 13 
168.346120 -282.148118 28.239242 123 95 93 
181.199363 -311.249170 29.111452 31 11 8 
166.666871 -273.839470 33.914403 158 123 118 
159.895800 -262.010657 27.447928 115 84 85 
176.728044 -310.425481 13.801997 101 79 77 
90.626038 -115.262290 5.224588 52 34 31 
150.925878 -240.386185 25.347961 42 12 11 
188.978947 -331.135966 21.982193 39 20 17 
180.491836 -305.779445 27.045396 51 24 22 
142.896557 -217.830465 23.238005 39 7 6 
175.922885 -287.581970 31.366267 24 7 8 
185.167242 -322.753994 11.561948 122 102 99 
178.209214 -292.239863 31.481031 24 1 0 
215.395251 -392.160776 10.048374 169 151 148 
132.307899 -185.670237 25.872178 60 38 35 
146.657970 -214.883265 30.073933 37 10 8 
182.026780 -302.495478 14.112434 83 59 54 
218.846866 -394.481233 6.286369 178 158 155 
218.846866 -394.481233 6.286369 178 158 155 
166.829610 -261.329698 20.665093 125 94 95 
168.205958 -254.312423 34.734880 152 117 114 
86.413408 -80.074720 2.779018 50 32 29 
86.413408 -80.074720 2.779018 50 32 29 
141.022910 -200.022210 14.111815 57 27 26 
174.545835 -254.094075 48.955728 154 124 118 
174.545835 -254.094075 48.955728 154 124 118 
174.545835 -254.094075 48.955728 154 124 118 
163.877117 -239.544340 33.069846 108 78 77 
180.626343 -288.509503 17.808728 114 89 87 
188.860909 -313.420177 8.734576 34 18 16 
180.499637 -290.003487 12.625374 41 16 13 
184.757146 -294.861959 20.232052 98 75 66 
185.164496 -300.963644 10.839731 37 16 10 
145.338454 -199.511243 18.455088 100 70 69 
213.204034 -364.849559 9.563231 173 154 151 
103.410575 -108.735275 1.518699 175 155 152 
103.410575 -108.735275 1.518699 175 155 152 
190.966736 -310.260667 10.047028 31 20 11 
179.964451 -283.860326 10.120332 38 13 11 
172.494131 -259.620929 18.473950 38 15 14 
172.494131 -259.620929 18.473950 38 15 14 
159.122916 -209.852818 41.825569 134 105 101 
186.917197 -300.830886 3.191006 104 86 83 
156.926607 -212.003324 29.208102 45 18 16 
186.875427 -295.353547 9.055841 125 103 99 
227.506328 -396.251787 2.031915 46 31 27 
186.402519 -282.893147 25.422238 47 22 20 
183.334636 -283.227130 12.736075 89 66 63 
203.728961 -322.633660 25.555954 23 11 11 
195.013480 -312.051957 10.001348 19 9 4 
183.803459 -275.711125 24.006612 140 116 111 
183.803459 -275.711125 24.006612 140 116 111 
184.472482 -285.603998 8.795961 28 8 5 
176.525996 -243.384216 40.863146 128 98 97 
177.038984 -252.635930 28.243419 39 14 12 
226.710457 -381.560067 7.682308 46 31 27 
226.710457 -381.560067 7.682308 46 31 27 
178.932642 -247.712472 36.186014 101 74 72 
194.562444 -295.108411 20.113525 84 64 61 
150.584738 -182.531239 31.180401 54 25 21 
189.039563 -288.829984 8.482880 29 12 6 
177.328585 -231.123024 49.175689 151 120 116 
177.328585 -231.123024 49.175689 151 120 116 
177.328585 -231.123024 49.175689 151 120 116 
168.160076 -219.047150 33.892315 46 16 15 
154.756495 -181.066345 39.779643 65 36 32 
191.891918 -293.911031 2.260418 27 11 9 
175.530704 -233.041602 30.862332 58 32 27 
217.150758 -346.671122 7.317787 172 153 147 
162.205792 -192.393579 40.597887 43 17 12 
180.644613 -239.823545 32.503704 40 17 16 
180.644613 -239.823545 32.503704 40 17 16 
208.587095 -319.864366 12.134823 27 16 13 
193.372617 -283.058372 12.252048 106 85 84 
181.412686 -233.872065 40.608821 121 96 89 
126.119390 -117.626647 12.473926 50 35 31 
173.258404 -220.570050 28.666951 157 128 124 
213.349461 -326.865688 8.977189 173 156 150 
188.755950 -259.912970 20.201878 32 8 7 
86.547926 -20.795507 3.192447 51 31 28 
86.547926 -20.795507 3.192447 51 31 28 
180.314059 -229.334555 30.752408 35 11 6 
191.749692 -265.259267 16.840850 36 16 13 
173.836545 -217.320308 23.987320 54 29 27 
185.197542 -236.769559 36.004368 32 9 8 
196.411258 -258.962749 42.990604 128 101 99 
174.477391 -203.640926 45.654869 52 22 21 
178.485942 -222.269266 30.700091 105 78 76 
177.021230 -205.677147 43.853923 156 127 123 
188.197236 -249.535785 15.864757 29 4 4 
188.197236 -249.535785 15.864757 29 4 4 
192.171194 -255.323542 11.183452 46 20 20 
171.356053 -191.576407 30.152977 118 91 89 
179.329445 -213.546032 23.319808 52 29 28 
179.329445 -213.546032 23.319808 52 29 28 
198.392901 -265.482774 14.274132 46 25 24 
173.267069 -193.878776 29.503174 44 20 15 
219.113554 -313.018271 15.823816 171 154 152 
160.747848 -156.967058 37.497347 128 98 97 
198.119297 -235.926331 51.673153 119 95 90 
149.457763 -139.842558 14.306294 61 37 32 
173.805036 -189.238055 30.271874 56 31 29 
189.698572 -233.243994 20.527998 132 110 107 
189.698572 -233.243994 20.527998 132 110 107 
160.974648 -152.206917 36.481248 129 104 99 
176.873113 -193.158428 32.085180 119 96 95 
214.357411 -301.588866 1.181176 51 34 35 
192.346445 -241.849859 10.251309 54 31 30 
171.525024 -175.997984 33.414221 58 32 27 
184.363593 -200.039651 43.800889 44 21 20 
193.814857 -233.216902 25.278121 40 18 15 
102.319159 -20.948952 2.783915 49 30 29 
191.522134 -223.250295 27.181902 48 22 22 
163.469426 -150.281320 33.941215 99 73 68 
220.693246 -299.877306 18.180896 50 34 32 
220.693246 -299.877306 18.180896 50 34 32 
174.371017 -178.110227 31.317163 143 118 112 
191.445260 -225.045827 22.665566 130 108 105 
195.073892 -235.935339 15.849541 105 85 82 
189.351433 -214.320713 23.979981 84 61 60 
199.850790 -246.005900 12.813553 36 14 11 
197.805622 -235.843387 19.373427 75 55 52 
188.999727 -211.965678 22.364917 101 78 77 
166.351682 -144.760125 40.853028 143 119 114 
180.570845 -189.260884 24.207683 50 26 28 
215.379786 -285.187562 2.805700 177 156 155 
197.700782 -229.168977 22.984430 118 96 94 
229.492695 -315.936663 8.577135 49 35 28 
229.492695 -315.936663 8.577135 49 35 28 
169.882505 -158.710566 25.471258 50 20 20 
190.473092 -209.165685 25.411550 135 111 106 
180.327065 -176.256830 36.677754 147 122 120 
174.052533 -152.292831 49.681564 36 11 9 
225.111150 -282.896240 41.622937 176 158 155 
195.729822 -220.008544 24.850290 43 20 19 
195.729822 -220.008544 24.850290 43 20 19 
189.874959 -208.751385 19.374826 101 77 72 
173.509944 -162.492069 28.742253 108 77 78 
218.050615 -277.158702 20.803434 176 158 155 
225.188853 -302.632500 7.788421 170 151 150 
155.867767 -121.352511 23.720244 109 86 85 
155.867767 -121.352511 23.720244 109 86 85 
193.124675 -211.054172 24.992753 128 103 98 
192.544702 -208.378734 26.402047 78 52 47 
192.587615 -206.442003 29.616301 139 113 108 
199.319636 -236.020716 7.744254 50 28 25 
178.173162 -169.073655 29.650972 123 93 92 
178.173162 -169.073655 29.650972 123 93 92 
170.044085 -140.381032 40.218758 183 160 154 
178.589376 -163.618205 35.388606 51 21 20 
197.489843 -229.851123 1.964659 48 26 23 
192.816955 -201.650442 29.055719 144 119 117 
194.178998 -208.784376 21.661588 46 19 17 
182.709218 -154.842223 63.777059 147 123 118 
176.097785 -156.101191 30.643666 116 87 83 
197.070814 -210.782949 22.417948 45 17 17 
200.067539 -228.677122 1.961108 145 124 123 
177.404458 -157.639762 25.342099 140 116 111 
177.208165 -147.865739 40.396810 28 3 1 
159.009155 -111.834511 24.132324 186 164 161 
159.009155 -111.834511 24.132324 186 164 161 
183.295021 -154.660901 50.761433 105 79 75 
195.442879 -210.807692 6.219977 120 93 90 
186.855053 -184.051977 15.262050 42 21 16 
189.073608 -179.386325 31.338845 38 16 13 
180.860778 -156.461329 33.489282 150 123 121 
197.070083 -214.561542 0.524711 36 15 14 
199.237798 -213.626123 9.745370 119 95 92 
181.935024 -157.750391 30.353044 53 27 25 
181.935024 -157.750391 30.353044 53 27 25 
159.929455 -114.536788 10.109912 182 159 152 
198.228943 -210.434672 9.208883 62 38 33 
198.228943 -210.434672 9.208883 62 38 33 
161.491743 -112.249211 20.038686 164 142 139 
184.736715 -166.785648 24.961067 59 34 32 
190.742038 -183.942326 19.782388 151 130 124 
184.554943 -161.114973 32.184948 117 90 88 
184.554943 -161.114973 32.184948 117 90 88 
178.099429 -148.832734 25.556756 143 118 117 
230.203492 -285.825551 9.164729 52 34 31 
193.500435 -182.704523 27.799915 138 116 113 
178.313380 -145.101459 25.920199 95 76 70 
193.826320 -191.737069 11.126254 39 20 19 
184.528268 -156.401327 31.231625 109 82 80 
188.526921 -176.919440 12.732492 156 134 131 
162.264039 -108.051734 18.228121 76 56 53 
257.347162 -347.286075 10.306555 172 153 147 
199.794219 -206.292220 3.242017 39 21 15 
188.535590 -171.917337 11.669626 151 129 126 
188.535590 -171.917337 11.669626 151 129 126 
184.162828 -152.247128 24.001921 44 20 15 
192.258370 -169.061912 24.737677 39 14 12 
198.692339 -189.985612 14.680405 34 11 10 
185.849763 -148.559765 27.843078 39 17 15 
220.541392 -249.622043 1.519215 175 155 152 
188.608841 -158.694826 19.406925 121 98 98 
179.091333 -128.309783 28.100553 201 186 182 
168.517154 -107.729267 16.187034 172 151 148 
184.454390 -139.755045 26.778855 196 187 179 
180.907113 -129.987168 23.437441 153 141 134 
180.907113 -129.987168 23.437441 153 141 134 
200.089300 -187.423739 4.972050 119 96 95 
190.491484 -150.968744 21.830964 139 115 110 
190.491484 -150.968744 21.830964 139 115 110 
191.144648 -155.695223 15.286760 110 83 81 
183.881715 -128.641325 29.027285 150 138 133 
183.881715 -128.641325 29.027285 150 138 133 
190.361807 -155.846330 7.511333 84 57 55 
193.781636 -156.401889 20.372512 136 111 109 
184.518090 -129.666930 26.043167 207 197 192 
191.853322 -138.677447 40.586478 193 183 178 
194.767431 -160.053220 13.751711 137 111 111 
200.115845 -177.114116 3.699018 93 71 70 
197.489424 -167.866903 8.321751 44 21 23 
194.537786 -152.154086 21.146212 140 118 111 
204.123579 -184.392364 6.831107 35 14 13 
196.637015 -151.010061 31.608803 38 18 14 
201.135879 -175.651791 5.394130 59 37 39 
191.878546 -143.636282 19.937991 166 151 147 
177.816311 -86.943580 54.579622 177 156 150 
194.172447 -148.389684 14.275404 54 34 28 
195.424996 -151.021362 13.205589 123 102 96 
193.898310 -143.760737 18.412176 176 160 158 
205.061942 -171.671710 16.758446 82 61 60 
182.364014 -111.623215 20.276154 199 186 182 
198.800726 -149.773882 26.454410 53 37 31 
198.800726 -149.773882 26.454410 53 37 31 
184.165893 -110.073928 25.968293 107 87 84 
212.970164 -188.851451 13.797694 131 116 117 
212.970164 -188.851451 13.797694 131 116 117 
203.350596 -165.143037 8.724479 108 87 86 
200.054917 -150.460760 12.493028 28 11 5 
183.426717 -103.649810 16.696766 173 153 150 
226.775962 -203.972210 35.165172 30 21 18 
223.707772 -209.892876 3.457442 176 156 155 
204.848035 -152.539227 9.460527 32 14 9 
205.452194 -135.019490 2.982806 132 121 118 
205.452194 -135.019490 2.982806 132 121 118 
208.529295 -127.279719 28.647082 60 46 44 
201.479914 -120.163790 5.363367 129 118 115 
203.599935 -118.443208 6.550627 37 26 23 
208.067679 -127.501270 7.262896 139 125 123 
207.649734 -119.574493 4.813538 21 9 9 
203.238821 -108.744226 1.512196 44 25 24 
203.082046 -105.617004 0.769594 179 160 159 
216.081312 -128.968162 11.709379 164 149 149 
314.448491 -385.909703 12.907767 45 29 26 
220.026402 -133.499469 4.534726 178 162 160 
316.258852 -379.164272 17.119027 48 30 27 
213.405442 -112.448456 5.384182 116 103 99 
222.607433 -130.429869 13.977375 178 163 161 
223.714110 -133.787482 7.054619 145 129 127 
224.940850 -129.428202 20.709535 23 9 7 
323.393948 -392.932023 5.715474 45 30 26 
230.247284 -141.071498 9.503938 175 153 152 
302.433469 -315.627187 8.098952 44 31 27 
224.537746 -108.969868 3.150774 46 30 28 
333.977086 -397.346645 3.397290 44 29 25 
295.596629 -281.135783 3.569403 48 30 27 
335.705415 -377.404593 0.666592 45 29 27 
335.705415 -377.404593 0.666592 45 29 27 
306.818407 -296.885512 0.119181 174 156 153 
319.847343 -301.767634 0.318868 47 32 28 
271.154490 -119.474739 32.283717 176 155 149 
317.754363 -248.532407 7.485759 176 154 151 
305.801692 -185.718959 4.711960 49 36 32 
277.117233 -71.123796 45.608272 174 153 147 
277.117233 -71.123796 45.608272 174 153 147 
277.117233 -71.123796 45.608272 174 153 147 
329.130761 -123.594636 54.899032 40 20 17 
329.130761 -123.594636 54.899032 40 20 17 
320.590800 -8.710134 12.438356 176 155 154 
0.222807 -393.577163 9.516561 173 158 151 
5.583026 -397.485944 9.351853 64 50 43 
5.583026 -397.485944 9.351853 64 50 43 
10.108412 -353.786735 29.992886 174 155 149 
7.819779 -385.001099 7.304564 174 157 152 
7.819779 -385.001099 7.304564 174 157 152 
0.353142 -297.908568 20.462341 179 158 152 
2.062108 -303.436626 11.573453 53 33 30 
2.062108 -303.436626 11.573453 53 33 30 
22.843025 -382.009070 12.102173 49 34 27 
9.064717 -295.817356 13.451146 177 157 154 
9.064717 -295.817356 13.451146 177 157 154 
12.577198 -306.712710 8.613904 173 156 150 
12.095432 -293.299090 12.044810 178 158 155 
12.095432 -293.299090 12.044810 178 158 155 
21.763536 -314.012018 16.817632 173 154 153 
1.294830 -206.919489 21.983888 183 161 158 
14.201745 -296.011090 7.757497 47 29 21 
14.201745 -296.011090 7.757497 47 29 21 
11.047157 -218.395024 34.786679 179 157 154 
26.734142 -319.914416 14.569346 54 34 31 
26.734142 -319.914416 14.569346 54 34 31 
5.160156 -203.856028 18.033172 43 23 20 
9.709384 -207.821982 21.868579 61 39 36 
5.265428 -188.708431 13.936682 176 154 151 
5.265428 -188.708431 13.936682 176 154 151 
15.523084 -214.871392 19.455707 178 159 153 
15.523084 -214.871392 19.455707 178 159 153 
0.713752 -112.282191 28.450809 50 32 29 
15.025321 -197.755219 14.416657 55 37 29 
15.025321 -197.755219 14.416657 55 37 29 
15.025321 -197.755219 14.416657 55 37 29 
53.158714 -396.820144 3.433814 171 152 146 
53.158714 -396.820144 3.433814 171 152 146 
12.107731 -193.323851 8.910097 55 36 30 
11.832129 -180.289346 12.352004 56 36 33 
21.710991 -204.146863 13.895775 175 157 154 
21.710991 -204.146863 13.895775 175 157 154 
21.710991 -204.146863 13.895775 175 157 154 
26.831685 -218.198134 15.476868 56 36 33 
13.315102 -107.009544 24.678002 48 30 27 
28.435314 -196.957123 13.459817 55 37 29 
20.604365 -127.140798 25.758158 55 36 30 
21.158326 -120.441608 27.298255 52 32 29 
21.158326 -120.441608 27.298255 52 32 29 
19.163922 -111.430474 24.872520 180 158 155 
4.588148 -55.907163 18.615128 177 156 150 
4.588148 -55.907163 18.615128 177 156 150 
21.682189 -98.725592 22.104203 177 156 150 
25.342487 -118.091594 19.924365 176 157 154 
25.342487 -118.091594 19.924365 176 157 154 
68.733441 -342.821088 6.110520 172 151 145 
30.786908 -106.690207 27.396685 183 162 156 
30.786908 -106.690207 27.396685 183 162 156 
9.164343 -5.600091 22.441136 181 161 155 
9.164343 -5.600091 22.441136 181 161 155 
28.374993 -107.138468 14.262640 57 36 30 
17.301576 -21.704947 21.739631 177 158 155 
30.647849 -85.950275 18.023497 52 33 27 
91.100227 -397.930831 8.746577 43 30 26 
91.534211 -381.720136 6.485199 46 31 27 
56.388898 -198.424243 10.141424 176 155 149 
56.388898 -198.424243 10.141424 176 155 149 
25.720263 -12.879608 22.671223 178 156 153 
25.720263 -12.879608 22.671223 178 156 153 
30.422724 -26.001312 21.397302 54 34 31 
30.422724 -26.001312 21.397302 54 34 31 
85.299437 -309.775222 8.825176 55 35 32 
91.157991 -319.871869 17.105408 55 35 32 
91.157991 -319.871869 17.105408 55 35 32 
90.991151 -303.987309 16.998293 57 37 34 
108.430435 -392.824186 10.511718 170 150 147 
92.293326 -309.461586 3.658444 177 158 152 
92.293326 -309.461586 3.658444 177 158 152 
108.165322 -349.717760 21.915193 172 153 147 
107.901756 -383.317338 3.089612 171 151 148 
95.777190 -294.931446 12.547354 177 158 155 
95.777190 -294.931446 12.547354 177 158 155 
112.852374 -394.084971 0.516296 39 21 18 
112.852374 -394.084971 0.516296 39 21 18 
56.887426 -99.131145 4.072369 177 156 150 
56.887426 -99.131145 4.072369 177 156 150 
104.688375 -302.296955 13.461181 55 38 33 
87.691079 -216.729839 9.971662 56 34 31 
107.341023 -295.531200 19.423718 55 37 34 
68.902425 -64.633441 31.037476 174 153 147 
120.150435 -388.909416 1.031126 53 36 30 
95.869384 -185.535337 22.545714 55 35 32 
134.337231 -368.765492 29.098151 140 115 108 
133.427025 -351.936808 34.576065 147 121 116 
94.592563 -193.477638 11.637475 177 158 152 
138.357148 -379.390877 31.096144 47 27 21 
131.844720 -346.527235 30.203801 146 119 117 
129.990429 -375.788647 11.092280 47 26 20 
97.032354 -204.055455 6.557187 174 154 151 
125.951629 -328.476322 17.378097 145 118 116 
125.951629 -328.476322 17.378097 145 118 116 
132.967070 -309.955223 42.088645 48 30 27 
132.967070 -309.955223 42.088645 48 30 27 
115.675181 -254.215840 24.777501 179 158 152 
139.169126 -339.792968 37.178533 31 6 4 
105.207773 -196.354834 17.492127 58 38 35 
120.547004 -298.686467 5.075040 35 20 16 
140.435496 -340.883602 33.399722 87 62 60 
140.159493 -363.158566 21.738075 61 44 42 
140.159493 -363.158566 21.738075 61 44 42 
125.324112 -316.563506 5.510685 86 63 60 
103.143466 -185.022642 9.672432 179 158 152 
103.143466 -185.022642 9.672432 179 158 152 
110.026900 -216.735394 8.890228 59 38 35 
144.610973 -347.036923 32.255773 34 9 7 
107.242634 -193.864742 7.708626 57 36 33 
107.242634 -193.864742 7.708626 57 36 33 
94.150440 -115.802780 9.650100 53 35 32 
148.955349 -345.920896 40.105694 128 98 97 
148.170672 -341.325926 37.882746 139 112 110 
149.899085 -347.618257 36.764947 30 3 1 
138.027628 -304.186820 25.910000 40 15 13 
144.473521 -322.124822 32.239364 130 96 95 
142.857267 -321.006897 28.390373 138 104 103 
137.551384 -299.014194 24.555490 48 23 21 
148.236218 -375.252435 10.877316 51 37 38 
100.419352 -104.445238 10.612668 47 27 25 
150.910225 -351.921011 24.464522 21 7 5 
118.703609 -210.049750 8.060447 177 158 152 
152.288044 -361.027096 21.269660 69 55 53 
95.572776 -86.785479 3.193180 174 151 150 
117.033054 -200.567202 4.944540 58 38 35 
117.033054 -200.567202 4.944540 58 38 35 
136.161833 -273.995067 19.338454 58 29 25 
146.309675 -298.062221 34.112951 132 102 96 
151.662386 -331.336227 32.061949 41 16 14 
151.662386 -331.336227 32.061949 41 16 14 
119.193693 -194.102096 9.158742 181 159 156 
148.866191 -356.803024 8.906212 54 38 36 
148.866191 -356.803024 8.906212 54 38 36 
150.989946 -303.016926 38.142919 139 108 104 
154.739437 -360.332996 19.622488 22 7 5 
89.013188 -20.369682 4.793154 51 31 28 
89.013188 -20.369682 4.793154 51 31 28 
123.151673 -215.680299 0.945258 51 32 26 
104.632697 -107.286511 0.963744 175 155 152 
104.632697 -107.286511 0.963744 175 155 152 
150.157570 -306.674210 26.082530 45 15 14 
146.476120 -273.017791 30.155999 136 105 101 
165.049369 -354.852779 38.478195 89 62 62 
163.760248 -344.991804 36.843352 145 115 109 
166.825690 -345.051224 44.636845 130 100 94 
166.825690 -345.051224 44.636845 130 100 94 
116.687931 -148.425237 4.613035 179 156 149 
130.268681 -182.578701 18.789434 60 38 35 
106.377419 -81.479759 2.077980 50 32 29 
153.745048 -283.998377 30.811238 49 22 20 
153.745048 -283.998377 30.811238 49 22 20 
161.266655 -312.093417 37.440223 112 85 83 
167.485046 -354.110537 33.108497 83 57 57 
167.485046 -354.110537 33.108497 83 57 57 
166.959933 -358.221153 29.305492 71 50 49 
169.285320 -363.365972 32.575954 90 74 72 
169.285320 -363.365972 32.575954 90 74 72 
145.512429 -257.334079 19.214975 55 29 24 
160.796203 -313.618154 31.355618 36 7 5 
165.030575 -322.228066 37.390583 157 129 123 
165.030575 -322.228066 37.390583 157 129 123 
165.030575 -322.228066 37.390583 157 129 123 
165.030575 -322.228066 37.390583 157 129 123 
150.942085 -264.294430 26.446882 42 13 9 
150.942085 -264.294430 26.446882 42 13 9 
167.416565 -365.082062 21.654707 63 47 48 
171.264862 -341.941224 43.012775 153 123 122 
165.000948 -317.667816 36.272136 151 122 118 
173.704759 -360.096967 37.285447 21 2 1 
153.916651 -255.430211 31.766384 34 4 2 
107.376903 -50.056024 3.107342 174 153 147 
107.376903 -50.056024 3.107342 174 153 147 
174.172385 -362.192594 34.932794 80 61 60 
152.002080 -244.364057 30.029776 134 102 101 
103.105873 -18.835304 1.067316 49 30 29 
174.197926 -351.690049 35.756073 29 10 4 
165.688048 -309.413069 32.657242 32 3 2 
176.370060 -364.744727 35.341227 106 87 86 
176.419664 -362.531247 35.975987 26 7 6 
165.017612 -301.798600 33.776808 158 129 125 
165.832786 -297.434902 37.980045 91 61 55 
165.832786 -297.434902 37.980045 91 61 55 
149.691844 -218.052466 30.710944 84 56 54 
166.526228 -316.080668 29.179687 145 117 111 
173.115717 -346.595942 30.168502 25 8 4 
165.907863 -303.627421 30.758583 26 0 0 
167.687864 -311.805910 31.435433 122 93 92 
157.934360 -311.690004 4.560348 108 80 74 
157.934360 -311.690004 4.560348 108 80 74 
164.457059 -285.483972 34.551201 44 13 9 
174.305864 -363.386684 24.239202 29 10 9 
148.215065 -204.672231 28.211859 59 29 28 
122.954326 -111.538421 2.194155 50 35 31 
179.769581 -362.590183 37.778726 114 95 94 
168.165149 -307.546902 31.843981 110 82 82 
165.489129 -298.572773 28.137587 51 24 19 
178.770204 -359.069802 34.656347 39 21 19 
170.309019 -314.722124 32.299684 30 1 1 
164.223846 -286.429297 28.384521 124 95 91 
168.326236 -295.664522 34.047705 59 31 27 
167.661727 -301.446438 28.877337 114 88 83 
145.718287 -192.264753 19.725650 44 12 10 
175.179267 -338.263754 30.988576 22 2 1 
163.973689 -264.150565 34.789983 114 82 82 
179.312536 -361.612944 28.822227 22 3 2 
175.848537 -346.598648 25.972766 37 15 12 
180.103603 -358.220170 31.407036 115 95 92 
167.011808 -302.392945 21.773455 55 28 26 
182.346200 -356.945475 37.989833 31 11 8 
169.170117 -299.272757 27.681413 35 9 5 
169.523955 -292.884414 31.600973 130 103 101 
175.454461 -320.163600 34.671143 58 32 27 
177.154271 -364.595677 17.118007 77 58 57 
170.027239 -275.643433 39.852086 159 124 119 
170.027239 -275.643433 39.852086 159 124 119 
174.956296 -325.414886 28.183556 87 62 60 
174.956296 -325.414886 28.183556 87 62 60 
148.440821 -179.359787 23.385905 50 21 17 
175.636108 -361.662404 11.590855 30 11 9 
169.471518 -294.604358 26.558334 31 4 2 
170.749321 -288.335615 32.978733 115 88 86 
177.231099 -343.128038 24.402472 59 40 34 
176.864058 -344.386092 22.699286 141 120 114 
110.858736 -3.459992 1.947345 55 35 32 
159.277207 -226.354291 29.722903 38 9 7 
178.292252 -338.754517 26.897710 23 5 4 
169.854659 -313.674396 14.068119 96 69 67 
158.211802 -212.102808 29.729188 44 17 15 
158.211802 -212.102808 29.729188 44 17 15 
174.736808 -310.860809 28.417217 51 29 26 
174.736808 -310.860809 28.417217 51 29 26 
182.535323 -342.682241 33.729850 140 121 115 
178.842591 -358.612319 15.088200 23 4 3 
172.920924 -279.328547 35.869727 150 120 115 
177.795816 -360.368205 10.288100 115 98 92 
168.957296 -296.932826 15.899725 58 31 27 
173.779856 -312.922864 20.764048 32 8 3 
154.773395 -170.199247 34.852262 46 16 15 
181.824658 -349.723189 24.212088 70 50 47 
182.640594 -346.104543 27.941313 116 94 89 
169.668374 -292.741661 16.467056 43 16 14 
173.956087 -253.299278 44.961305 152 122 116 
173.956087 -253.299278 44.961305 152 122 116 
173.956087 -253.299278 44.961305 152 122 116 
177.223654 -362.140676 0.456758 129 111 108 
171.637212 -256.973877 35.029306 64 30 26 
174.708231 -276.985004 33.897599 40 12 9 
162.373293 -191.762977 38.518228 43 17 12 
182.647723 -354.492152 17.364665 32 12 14 
178.283946 -320.759854 19.851398 106 81 79 
177.121486 -287.876801 31.972758 26 9 10 
180.361466 -330.385191 20.149507 89 69 66 
166.804966 -204.114920 41.097926 112 82 81 
186.202160 -348.599909 24.832482 21 2 1 
174.972042 -255.753630 36.629788 164 133 129 
176.713291 -308.023642 15.285954 28 7 4 
158.605779 -168.905509 27.770303 44 17 15 
178.841514 -310.882060 16.873267 102 81 79 
178.841514 -310.882060 16.873267 102 81 79 
179.427670 -342.151235 0.190362 74 56 53 
180.243267 -256.236298 43.633689 34 4 3 
185.567761 -341.220973 17.470493 75 54 53 
175.366689 -229.094214 41.890527 158 127 123 
175.366689 -229.094214 41.890527 158 127 123 
175.366689 -229.094214 41.890527 158 127 123 
178.396248 -244.358049 43.142085 128 98 97 
179.730314 -323.274895 6.667946 86 61 59 
188.162474 -355.359123 15.102898 133 117 115 
177.587846 -262.422309 28.974092 37 15 14 
152.024631 -136.568969 15.002692 35 11 6 
184.095920 -333.186343 12.457585 26 6 3 
187.768484 -341.349186 15.333950 108 89 88 
183.357786 -305.724879 14.670728 26 5 4 
183.357786 -305.724879 14.670728 26 5 4 
184.786978 -321.691200 8.301393 109 89 86 
169.651418 -172.357416 36.626429 45 20 18 
155.232075 -119.256953 19.433208 109 86 85 
155.232075 -119.256953 19.433208 109 86 85 
175.453638 -203.635922 37.566858 153 124 120 
187.015693 -332.128560 8.484129 37 22 18 
195.351041 -391.260776 3.840709 47 29 26 
182.765449 -284.797711 15.108378 35 10 8 
175.859286 -218.055695 26.647661 52 27 25 
180.134429 -238.693753 28.800633 40 17 16 
180.134429 -238.693753 28.800633 40 17 16 
179.436237 -292.701953 0.288046 42 17 10 
182.578938 -274.150771 18.490105 138 114 109 
182.578938 -274.150771 18.490105 138 114 109 
185.257590 -271.426415 25.245338 143 118 116 
185.321778 -302.448231 10.222540 83 63 60 
194.895090 -374.642839 2.072196 25 14 11 
177.759313 -220.792139 26.348749 105 78 76 
153.513669 -104.241129 7.932717 189 167 164 
153.513669 -104.241129 7.932717 189 167 164 
185.913520 -315.164367 0.098875 46 32 30 
175.925045 -145.933821 52.078465 188 164 159 
185.760477 -278.740932 15.458493 132 107 105 
199.295027 -383.231551 3.879562 159 143 141 
199.295027 -383.231551 3.879562 159 143 141 
176.788980 -175.897221 37.065583 156 129 127 
190.243704 -288.732659 21.957724 28 8 5 
190.243704 -288.732659 21.957724 28 8 5 
177.495905 -180.274344 36.802687 143 118 112 
184.939644 -251.863872 22.540610 146 120 117 
182.000452 -214.928131 27.860413 52 29 28 
167.365270 -117.466040 31.590500 161 139 136 
185.506289 -200.610368 44.366635 44 21 20 
207.369353 -398.399097 10.763134 42 29 25 
162.839269 -107.246996 17.045503 68 48 45 
172.205348 -141.751672 25.381432 30 5 3 
205.427310 -385.067578 4.943432 46 31 27 
205.427310 -385.067578 4.943432 46 31 27 
180.801055 -160.136020 40.169226 132 103 99 
177.787194 -148.341016 34.441465 107 81 76 
207.404527 -399.891303 0.505959 49 31 28 
183.702102 -191.410507 29.962522 50 26 28 
183.702102 -191.410507 29.962522 50 26 28 
191.988289 -230.440430 33.507951 114 90 85 
191.988289 -230.440430 33.507951 114 90 85 
190.628274 -263.475447 11.727401 36 16 13 
193.091589 -293.529808 3.420135 26 10 8 
178.356219 -157.570100 25.292049 143 119 114 
186.017990 -177.866189 37.244069 121 96 94 
179.970287 -146.804507 33.404526 31 12 6 
188.067076 -222.635870 20.760442 140 115 113 
181.804119 -156.604981 33.432613 149 122 120 
181.804119 -156.604981 33.432613 149 122 120 
182.127533 -179.369463 22.729671 42 17 15 
194.222779 -278.388015 9.242677 105 84 81 
181.644553 -151.599004 32.180802 137 112 110 
184.861503 -176.985833 27.715097 48 22 19 
190.190353 -221.273578 21.481973 58 32 32 
190.397141 -227.880738 18.249952 127 106 100 
190.098564 -235.046305 10.948160 36 15 14 
188.949083 -202.429522 22.076417 86 59 57 
216.308571 -392.099072 11.455248 169 151 148 
182.224187 -130.871776 33.638840 201 186 182 
182.669142 -163.676261 17.303766 61 36 34 
192.147608 -240.639121 7.761847 54 31 30 
190.421443 -198.586333 20.591446 145 120 118 
195.332802 -249.536246 8.331224 134 109 107 
189.401978 -151.637443 34.834591 40 18 14 
205.997808 -317.362716 2.731873 27 16 13 
205.997808 -317.362716 2.731873 27 16 13 
191.794090 -180.302801 21.256089 147 125 122 
194.371800 -228.862423 4.619225 131 109 106 
190.160227 -177.427827 14.891458 159 137 134 
185.128308 -130.326324 20.378156 193 183 178 
195.191883 -151.102456 41.831043 146 128 125 
178.949567 -110.144236 7.531205 119 109 104 
195.531909 -229.646968 0.544226 128 106 103 
181.417403 -109.397560 15.439155 199 186 182 
198.734010 -227.987165 9.571397 116 91 90 
190.333257 -149.862400 19.266864 144 120 115 
192.309321 -148.414484 23.757576 89 67 64 
192.893163 -166.661697 13.839687 44 21 12 
198.689907 -224.318204 3.016701 26 2 1 
181.148629 -99.759469 8.300363 172 152 149 
192.794137 -156.427173 17.433207 111 84 82 
192.794137 -156.427173 17.433207 111 84 82 
193.783904 -144.794894 22.780261 163 149 145 
184.059451 -102.526072 7.504973 73 58 59 
203.162411 -224.181493 4.857844 142 123 122 
199.279712 -202.260135 2.933897 108 88 85 
195.529706 -154.507752 11.891814 136 111 109 
197.080516 -147.156332 19.868788 54 39 32 
197.080516 -147.156332 19.868788 54 39 32 
200.284986 -186.457132 3.673159 121 98 97 
191.646833 -108.817236 12.535690 95 83 83 
191.646833 -108.817236 12.535690 95 83 83 
196.859379 -145.845354 1.812443 28 11 5 
203.011955 -182.152786 1.943275 33 12 11 
206.671522 -167.837807 16.263357 113 92 91 
203.641330 -166.191037 3.107518 33 13 12 
204.007818 -150.709722 5.463661 32 14 11 
210.517679 -185.462029 5.241274 132 117 118 
210.517679 -185.462029 5.241274 132 117 118 
206.063869 -123.957155 20.339936 36 22 20 
205.893442 -135.685648 3.492070 133 122 119 
206.960134 -142.903160 3.142993 136 122 120 
207.826129 -126.364581 4.979992 138 124 122 
207.016238 -117.927686 1.442794 22 10 10 
207.016238 -117.927686 1.442794 22 10 10 
211.024146 -114.253902 1.204866 110 100 95 
212.683936 -124.143549 0.572399 162 148 147 
228.040967 -115.269469 0.851339 49 34 32 
313.878471 -281.936443 1.599272 48 30 29 
123.634112 -374.009854 1.346813 49 29 23 
98.915254 -347.122251 5.924491 176 155 149 
55.513580 -298.324056 10.076483 174 153 147 
138.270357 -348.135932 36.650996 24 0 0 
129.659503 -341.382194 30.683450 144 118 113 
143.487235 -356.243004 1.001008 57 39 38 
165.661296 -365.825240 2.135128 42 26 29 
168.236908 -358.210222 28.849056 18 4 0 
162.890933 -343.686107 40.634539 113 81 75 
162.890933 -343.686107 40.634539 113 81 75 
174.013175 -352.290678 41.011075 25 7 4 
180.637380 -354.783366 17.251970 34 13 12 
178.694923 -344.925769 33.635860 92 70 67 
178.694923 -344.925769 33.635860 92 70 67 
166.056003 -323.696638 45.722887 159 130 126 
166.056003 -323.696638 45.722887 159 130 126 
181.242702 -335.757261 37.758473 19 0 0 
156.041389 -311.492703 46.106470 46 20 15 
184.204553 -339.178520 15.209988 30 13 12 
186.930470 -336.075196 25.314761 31 9 11 
183.897820 -330.352519 23.390438 34 10 12 
167.807611 -311.851663 43.352005 37 7 6 
192.293929 -334.569353 27.837960 36 17 16 
179.952431 -323.248632 29.222089 115 85 84 
179.952431 -323.248632 29.222089 115 85 84 
179.952431 -323.248632 29.222089 115 85 84 
175.998202 -313.027876 37.923221 57 32 31 
186.939814 -326.156000 2.223779 154 133 132 
21.214296 -176.710018 0.052146 53 32 26 
21.214296 -176.710018 0.052146 53 32 26 
105.800547 -250.848487 7.714961 179 155 150 
168.506644 -300.452407 50.288381 134 106 100 
168.506644 -300.452407 50.288381 134 106 100 
81.085222 -217.054427 1.960694 56 36 31 
81.085222 -217.054427 1.960694 56 36 31 
142.412738 -264.105421 32.655074 52 22 18 
177.785883 -290.138098 39.408535 30 8 10 
177.785883 -290.138098 39.408535 30 8 10 
152.164377 -264.876698 42.142437 43 12 8 
145.638104 -257.320790 41.981722 51 22 18 
183.157442 -291.621816 27.475738 115 89 89 
171.696969 -278.231157 49.617408 157 123 118 
146.801665 -253.399209 43.529404 56 24 23 
98.343281 -211.948690 4.221594 180 155 153 
103.829447 -216.843943 1.027113 59 37 34 
92.360963 -205.641068 2.519857 180 155 153 
213.455185 -310.731002 1.014183 174 156 153 
151.999716 -248.478456 45.926191 48 19 15 
86.540916 -192.385272 0.046860 177 156 153 
106.027160 -209.293071 6.263839 61 36 34 
186.177720 -278.744619 33.597627 131 107 102 
186.177720 -278.744619 33.597627 131 107 102 
186.177720 -278.744619 33.597627 131 107 102 
95.670739 -193.810965 2.525546 58 36 33 
95.670739 -193.810965 2.525546 58 36 33 
221.661296 -309.372053 5.430839 49 27 24 
295.504327 -377.081368 0.725627 48 30 27 
295.504327 -377.081368 0.725627 48 30 27 
178.485051 -265.798753 36.598701 37 17 14 
83.900807 -181.052081 2.922446 53 36 30 
83.900807 -181.052081 2.922446 53 36 30 
2.707779 -105.353195 0.470823 176 156 153 
103.144868 -195.147490 4.393523 60 38 35 
103.144868 -195.147490 4.393523 60 38 35 
161.921814 -244.416977 53.617206 34 8 8 
175.060748 -255.880352 53.418960 146 114 108 
175.060748 -255.880352 53.418960 146 114 108 
175.060748 -255.880352 53.418960 146 114 108 
96.437302 -184.905871 1.359237 179 157 154 
96.437302 -184.905871 1.359237 179 157 154 
60.495533 -149.503002 3.689943 178 154 149 
193.823286 -272.375491 6.785745 48 26 25 
109.720913 -193.241640 8.384638 52 30 27 
109.720913 -193.241640 8.384638 52 30 27 
192.841477 -267.582339 22.365943 36 16 13 
122.095071 -202.741460 4.398263 51 33 30 
122.095071 -202.741460 4.398263 51 33 30 
114.626316 -195.101427 4.674419 180 158 155 
114.626316 -195.101427 4.674419 180 158 155 
198.674086 -272.216110 2.173307 140 124 121 
207.461570 -278.928964 2.126750 33 20 17 
151.563398 -220.021693 45.366129 42 12 11 
328.415634 -385.102264 2.312547 167 152 148 
162.953703 -225.516007 52.338011 47 17 16 
183.496726 -243.418248 42.572996 40 17 16 
227.444664 -285.075802 2.642405 52 35 32 
176.124543 -231.680493 48.993627 160 128 122 
176.124543 -231.680493 48.993627 160 128 122 
176.124543 -231.680493 48.993627 160 128 122 
195.574753 -242.101932 30.379279 38 16 13 
124.365694 -175.374030 1.869012 44 21 20 
189.614762 -230.002581 31.451904 112 90 87 
87.247446 -127.966119 14.333983 49 27 24 
87.247446 -127.966119 14.333983 49 27 24 
179.759000 -209.595787 54.054426 171 142 138 
179.759000 -209.595787 54.054426 171 142 138 
179.759000 -209.595787 54.054426 171 142 138 
194.414843 -220.815629 22.760597 43 18 16 
87.404206 -116.000428 1.216855 50 31 30 
301.610630 -315.464471 3.261670 46 31 27 
197.717861 -210.054481 10.863351 125 103 100 
4.173627 -17.489011 4.735865 175 157 154 
4.173627 -17.489011 4.735865 175 157 154 
97.057976 -104.832868 8.200462 40 22 19 
97.057976 -104.832868 8.200462 40 22 19 
113.260452 -116.822346 12.668929 181 156 155 
113.260452 -116.822346 12.668929 181 156 155 
15.650416 -19.539279 0.714344 54 34 31 
200.679772 -199.605684 31.987845 44 17 20 
58.205671 -59.672116 16.442251 178 154 149 
252.735605 -248.415587 1.966748 176 154 151 
85.340320 -82.249260 4.141825 54 34 31 
320.441461 -311.787308 1.856358 173 155 152 
122.654505 -117.053921 7.691576 52 34 31 
122.654505 -117.053921 7.691576 52 34 31 
308.012128 -298.335648 2.338580 174 156 153 
11.780427 -7.266716 3.997690 177 156 155 
11.780427 -7.266716 3.997690 177 156 155 
197.464725 -187.824751 41.169963 144 120 115 
297.506913 -283.225220 9.212295 50 32 29 
328.259006 -310.376453 1.482890 172 154 151 
304.235509 -286.325084 3.086781 175 157 154 
321.586348 -303.219615 4.009221 47 29 26 
321.586348 -303.219615 4.009221 47 29 26 
105.353444 -85.323436 6.728674 52 32 29 
209.155484 -186.343205 3.595653 136 117 116 
209.155484 -186.343205 3.595653 136 117 116 
320.837005 -296.453984 11.747260 176 158 155 
225.539563 -201.299567 30.619686 26 12 10 
204.649375 -176.309368 30.240517 43 21 18 
163.028164 -130.603887 44.418331 111 87 82 
208.812700 -174.141759 21.212752 29 10 9 
222.891191 -187.497570 3.500716 175 154 153 
194.329129 -158.682520 52.926218 42 20 17 
124.712019 -81.765227 5.014109 51 31 28 
124.712019 -81.765227 5.014109 51 31 28 
330.457943 -286.846600 5.735895 173 155 152 
197.917052 -155.379268 52.823269 141 123 120 
190.854831 -148.029361 46.067696 197 182 178 
172.691295 -129.801544 44.906170 180 157 150 
207.659907 -159.547791 36.160818 28 9 6 
186.608141 -137.283730 49.955674 203 189 182 
329.402396 -279.139016 2.501151 47 27 24 
108.345583 -57.102161 12.808815 176 152 147 
108.345583 -57.102161 12.808815 176 152 147 
231.698599 -179.881095 5.863834 58 37 31 
231.698599 -179.881095 5.863834 58 37 31 
169.547191 -117.793152 39.594864 65 43 40 
339.174454 -283.140315 10.655119 48 30 27 
85.180259 -22.488045 3.747734 55 33 30 
85.180259 -22.488045 3.747734 55 33 30 
215.788470 -143.594360 8.541530 68 54 52 
318.345215 -247.608945 2.267815 176 154 151 
93.619489 -16.941868 6.923799 174 156 153 
93.619489 -16.941868 6.923799 174 156 153 
220.912733 -145.663295 8.832473 143 127 125 
227.935265 -152.431682 10.701504 176 158 157 
102.387741 -23.743273 5.989376 51 32 29 
217.612774 -140.883759 8.431031 145 129 127 
191.994468 -114.238467 32.931643 70 58 53 
