ply
format ascii 1.0
element vertex 1105
property float x
property float y
property float z
property uchar red
property uchar green
property uchar blue
end_header
197.709871 -393.189725 4.560875 51 33 30 
224.655612 -304.001117 39.025117 70 28 22 
224.732016 -316.729835 10.153011 65 23 17 
204.117661 -385.300667 3.434609 45 32 27 
325.619384 -5.898708 1.815763 167 153 146 
325.619384 -5.898708 1.815763 167 153 146 
299.897122 -92.118309 1.348725 166 147 141 
207.418665 -383.241377 7.941684 49 36 32 
295.635668 -112.335492 0.529202 45 30 26 
229.002620 -323.881229 6.238441 27 12 8 
308.966268 -89.217868 3.159410 167 152 148 
214.270781 -392.698653 4.402359 166 148 145 
216.842722 -394.048186 1.687832 160 142 139 
216.842722 -394.048186 1.687832 160 142 139 
216.842722 -394.048186 1.687832 160 142 139 
325.531587 -98.350105 0.361573 172 150 147 
300.444954 -202.163202 2.042667 159 146 142 
300.444954 -202.163202 2.042667 159 146 142 
312.752889 -183.768823 0.072184 45 32 28 
308.188505 -208.905137 0.650984 164 150 146 
308.188505 -208.905137 0.650984 164 150 146 
314.902601 -199.676714 1.150935 166 150 143 
317.933211 -197.035171 3.113753 46 29 23 
317.933211 -197.035171 3.113753 46 29 23 
326.079266 -187.574222 0.444147 163 146 140 
324.855283 -200.923581 0.528145 51 34 28 
333.281874 -179.598040 1.464757 46 32 25 
311.083189 -248.496014 0.255460 165 145 137 
327.185151 -209.238594 0.591957 172 152 146 
327.185151 -209.238594 0.591957 172 152 146 
301.297389 -286.224750 0.086767 168 149 143 
317.883743 -303.106198 2.180816 54 35 29 
334.135785 -282.455114 1.592172 45 31 24 
301.989253 -383.407057 1.188345 167 152 148 
308.782405 -395.267597 1.234417 50 35 31 
308.782405 -395.267597 1.234417 50 35 31 
308.782405 -395.267597 1.234417 50 35 31 
318.005480 -383.628262 0.597359 166 151 147 
318.005480 -383.628262 0.597359 166 151 147 
318.168659 -395.919384 4.597526 52 38 31 
326.747314 -384.914750 1.173634 166 152 145 
326.747314 -384.914750 1.173634 166 152 145 
332.164116 -394.578860 0.557048 44 33 25 
5.162508 -10.443252 0.747190 165 143 140 
6.820642 -95.112227 1.324633 162 141 135 
19.986582 -18.819241 2.479531 38 28 23 
14.100687 -90.062501 0.476463 161 139 136 
5.325884 -186.072541 5.872220 43 30 26 
21.655033 -83.834323 2.028674 38 29 21 
14.517901 -198.514958 1.082643 107 91 89 
14.517901 -198.514958 1.082643 107 91 89 
14.569059 -206.524988 4.551910 161 142 141 
2.360469 -298.637793 3.946011 167 147 144 
20.044626 -212.655869 0.217766 41 33 28 
20.044626 -212.655869 0.217766 41 33 28 
11.029187 -308.698202 2.937238 169 151 148 
3.368941 -386.305305 2.620093 159 145 143 
19.287256 -317.337362 2.130417 45 30 26 
16.137924 -389.632195 6.657645 39 30 23 
85.176480 -18.427284 1.681909 43 26 20 
85.011198 -83.512360 1.682561 44 31 27 
101.373953 -5.923003 1.018514 45 26 20 
88.123432 -117.450942 4.641492 41 29 25 
88.123432 -117.450942 4.641492 41 29 25 
92.970260 -92.261843 1.600442 163 146 140 
92.970260 -92.261843 1.600442 163 146 140 
110.144397 -12.753429 7.440607 36 22 15 
110.144397 -12.753429 7.440607 36 22 15 
94.346659 -102.293924 0.132654 40 24 22 
84.974446 -187.411979 6.839784 43 30 26 
84.974446 -187.411979 6.839784 43 30 26 
105.690425 -86.222276 1.441485 42 28 26 
101.892621 -108.706421 2.344354 165 143 140 
83.517787 -215.813943 3.915452 47 33 26 
111.337843 -94.985723 4.425122 41 25 23 
90.453486 -199.047965 6.023355 168 150 144 
90.453486 -199.047965 6.023355 168 150 144 
110.282476 -101.317379 2.128113 44 28 26 
111.380377 -111.452072 2.065064 165 143 142 
93.718951 -209.287034 7.430802 171 150 144 
118.043299 -92.849753 2.738966 161 144 138 
118.043299 -92.849753 2.738966 161 144 138 
106.616780 -149.294371 3.366487 165 144 138 
98.785999 -191.999062 2.108021 47 32 25 
126.041691 -82.371367 2.082687 39 28 25 
99.019067 -209.817924 5.590258 171 150 144 
123.436166 -109.257388 1.102215 41 27 25 
123.436166 -109.257388 1.102215 41 27 25 
106.654594 -199.358949 5.674694 49 37 31 
83.069971 -317.932341 2.850504 45 30 26 
83.069971 -317.932341 2.850504 45 30 26 
107.176146 -216.268581 2.391152 51 34 28 
88.721998 -299.598901 4.336556 162 147 143 
115.629678 -194.455684 6.145824 171 150 144 
90.077238 -311.840938 2.386809 165 150 146 
90.077238 -311.840938 2.386809 165 150 146 
115.866835 -203.697563 3.619102 43 30 25 
115.866835 -203.697563 3.619102 43 30 25 
116.994720 -210.682939 6.647282 34 22 17 
115.994055 -214.376092 5.280116 169 150 144 
123.453517 -184.229520 5.414981 46 33 29 
123.453517 -184.229520 5.414981 46 33 29 
154.716273 -81.349006 25.185600 166 145 139 
99.800592 -303.051894 3.664077 50 36 28 
124.016165 -199.724501 1.582907 50 32 29 
124.438407 -215.203999 1.685662 45 32 28 
107.799023 -292.841968 2.635680 173 155 152 
87.940519 -390.395989 5.989160 47 30 27 
187.950972 -8.679730 18.064265 41 21 18 
93.208892 -394.777905 4.533372 38 23 19 
128.910047 -252.485977 2.998787 169 148 144 
105.489045 -350.488687 5.328758 168 149 143 
105.489045 -350.488687 5.328758 168 149 143 
120.632026 -288.162374 0.953573 48 33 29 
98.647652 -378.345771 1.934110 46 32 30 
116.980966 -313.121814 2.642457 168 150 147 
195.267892 -14.513393 8.051253 169 149 146 
195.267892 -14.513393 8.051253 169 149 146 
205.420542 -3.160217 4.569291 51 31 24 
205.420542 -3.160217 4.569291 51 31 24 
123.921165 -318.274656 1.550214 48 33 29 
208.959301 -0.873387 15.284831 38 32 25 
208.959301 -0.873387 15.284831 38 32 25 
107.964424 -385.838259 3.203918 168 153 149 
143.330042 -279.537988 45.355279 47 17 13 
211.197256 -17.553928 10.331060 173 150 143 
147.930618 -284.921636 54.872069 41 12 8 
120.254869 -386.986523 6.505935 45 32 28 
156.128239 -286.114749 47.411768 21 0 0 
174.964074 -266.832168 117.457700 83 92 86 
181.618255 -267.481749 98.620230 135 143 147 
186.236347 -265.515802 109.194268 129 138 138 
171.781370 -298.772596 50.560554 122 130 134 
178.082589 -291.552208 79.455163 91 94 99 
178.082589 -291.552208 79.455163 91 94 99 
165.306196 -318.628030 42.606502 35 16 24 
187.612181 -270.524875 101.471167 25 45 113 
187.612181 -270.524875 101.471167 25 45 113 
187.612181 -270.524875 101.471167 25 45 113 
164.864649 -321.010765 30.857803 38 19 23 
178.787756 -295.478179 76.853027 140 146 150 
167.486267 -321.938502 50.199941 55 26 22 
167.486267 -321.938502 50.199941 55 26 22 
163.956511 -334.677656 45.167171 93 71 81 
201.788363 -241.525791 119.120433 40 45 38 
173.543126 -307.882109 51.018818 117 119 124 
163.964809 -327.205501 22.023221 25 13 77 
167.438810 -324.311454 37.366405 47 38 44 
165.174769 -327.797009 12.290138 96 64 63 
164.275901 -338.897843 26.956465 42 12 17 
168.951614 -332.442074 39.754786 128 125 140 
168.787794 -330.265823 33.397291 30 12 25 
172.111785 -323.402064 37.597793 127 129 136 
172.111785 -323.402064 37.597793 127 129 136 
198.661386 -267.856687 101.380880 134 146 151 
171.577009 -333.417277 40.417261 85 86 103 
196.446700 -292.100133 120.537850 83 97 102 
184.231068 -301.866666 49.835852 120 126 130 
192.508073 -289.842037 75.710789 137 145 149 
173.023223 -336.004990 23.409380 96 67 63 
179.655817 -316.842471 28.381745 44 34 47 
176.583881 -332.938695 35.869701 45 18 23 
197.437849 -285.678505 70.632444 69 78 84 
183.615363 -322.560193 36.414077 58 23 17 
179.039586 -329.403478 13.087412 118 81 76 
194.687539 -306.098751 54.699542 120 126 128 
183.472602 -332.689313 20.775997 103 75 75 
188.039864 -324.833646 32.805562 77 57 97 
192.804798 -315.334917 45.243738 60 23 14 
198.360467 -302.417734 48.491389 130 119 119 
189.479062 -322.213944 12.226234 54 21 21 
187.726475 -331.925988 12.280659 33 1 1 
205.644207 -307.730162 57.387494 118 125 126 
293.188959 -19.010961 2.041644 45 30 26 
293.188959 -19.010961 2.041644 45 30 26 
298.072096 -6.183088 1.756179 169 151 146 
298.072096 -6.183088 1.756179 169 151 146 
297.502373 -11.469661 10.201980 45 25 19 
297.502373 -11.469661 10.201980 45 25 19 
307.228465 -0.831208 1.602073 166 146 138 
208.564422 -325.565435 40.648977 102 84 81 
206.451925 -335.498878 44.856961 79 73 68 
206.451925 -335.498878 44.856961 79 73 68 
206.451925 -335.498878 44.856961 79 73 68 
219.640859 -299.798244 53.949887 171 149 146 
191.296232 -379.832478 5.253786 41 23 20 
191.296232 -379.832478 5.253786 41 23 20 
217.631708 -308.165348 19.465199 40 24 21 
316.515049 -12.496806 3.360149 167 143 138 
227.088302 -297.431648 33.369976 67 25 19 
191.893823 -394.544522 4.269480 44 26 23 
221.395658 -316.352053 31.944961 56 24 21 
218.256896 -334.383045 41.226374 108 85 85 
224.928241 -310.144356 22.292252 40 17 16 
323.799727 -13.903386 6.143023 160 146 139 
210.852754 -349.730299 5.260439 171 150 144 
221.887280 -334.901229 46.095003 121 88 84 
221.887280 -334.901229 46.095003 121 88 84 
198.160385 -394.168491 5.451948 48 30 27 
198.160385 -394.168491 5.451948 48 30 27 
222.241001 -331.346347 22.915963 62 22 16 
222.241001 -331.346347 22.915963 62 22 16 
301.602249 -103.973774 0.487771 50 30 27 
226.454985 -338.577922 19.479830 24 6 3 
233.685016 -320.567316 13.282262 67 26 17 
318.142779 -82.356786 0.488579 47 34 30 
234.679702 -324.247954 9.218579 162 138 133 
214.381808 -395.168229 6.776144 167 149 146 
317.543517 -112.382794 0.880065 175 148 146 
225.601195 -390.187817 8.201840 47 32 28 
264.265209 -286.833499 20.736225 173 152 146 
302.062013 -191.825321 0.286835 49 36 32 
302.062013 -191.825321 0.286835 49 36 32 
301.090124 -201.090004 1.018011 165 145 142 
311.475495 -188.086777 3.071815 44 31 27 
307.870527 -211.313177 2.282210 164 146 143 
307.870527 -211.313177 2.282210 164 146 143 
315.252349 -200.124827 1.189594 168 151 145 
324.326667 -203.794827 2.590774 51 32 26 
333.025787 -181.524273 2.457447 46 32 28 
292.334660 -287.458286 5.375774 47 32 27 
292.334660 -287.458286 5.375774 47 32 27 
308.281118 -257.357413 7.562908 166 145 139 
327.219327 -210.319850 1.208419 169 149 146 
327.219327 -210.319850 1.208419 169 149 146 
301.287288 -288.080097 1.499119 173 154 148 
295.007693 -319.778052 6.783643 46 32 25 
300.275777 -311.751794 13.364079 168 151 145 
309.459007 -312.081340 8.319694 172 155 149 
315.269816 -301.695963 13.180377 41 22 17 
311.919538 -309.469419 1.992955 39 22 16 
311.269516 -311.439689 4.036370 30 13 7 
323.267643 -286.972187 3.671027 165 153 146 
317.917229 -304.836968 3.509234 53 34 28 
326.156433 -290.448640 0.862531 170 151 145 
294.445072 -378.214441 3.237401 51 36 32 
334.175483 -284.116855 2.717850 48 34 27 
314.000380 -350.849662 3.514285 166 149 143 
301.928390 -385.224808 3.060404 164 151 142 
316.991977 -387.233687 4.264691 169 155 148 
316.991977 -387.233687 4.264691 169 155 148 
332.500152 -394.951534 0.708374 43 30 26 
0.841934 -282.207809 28.204982 164 143 137 
84.536258 -16.451245 0.250382 43 26 20 
84.536258 -16.451245 0.250382 43 26 20 
87.628155 -112.161352 0.724592 42 29 25 
84.630713 -178.829740 0.158663 43 30 26 
83.115578 -210.866316 0.026335 47 33 26 
90.160412 -192.781904 1.026798 169 150 144 
90.160412 -192.781904 1.026798 169 150 144 
107.572373 -104.345633 1.526037 43 24 23 
93.447416 -202.001024 1.717869 171 150 144 
98.024216 -193.516819 3.149218 47 30 24 
98.024216 -193.516819 3.149218 47 30 24 
117.475215 -88.939910 0.014789 161 144 138 
117.475215 -88.939910 0.014789 161 144 138 
97.582024 -224.334544 16.658119 171 150 144 
100.843224 -198.361662 0.589059 171 150 144 
100.843224 -198.361662 0.589059 171 150 144 
82.700356 -314.900029 0.290020 45 30 26 
82.700356 -314.900029 0.290020 45 30 26 
115.297933 -200.983816 1.496735 44 30 26 
115.297933 -200.983816 1.496735 44 30 26 
116.607236 -206.276845 3.795403 39 26 22 
87.668518 -385.613421 1.083484 48 30 27 
87.668518 -385.613421 1.083484 48 30 27 
98.147452 -376.545523 0.364292 46 32 30 
104.456650 -361.337033 15.277480 168 149 143 
107.227897 -375.634415 3.040956 47 34 31 
189.682721 -9.496756 11.376223 48 28 25 
107.544609 -382.877925 0.967154 166 152 148 
193.596304 -18.306417 10.898306 169 149 146 
193.596304 -18.306417 10.898306 169 149 146 
142.412211 -281.866018 46.584463 49 18 14 
204.585122 -1.533714 4.250698 52 31 25 
204.585122 -1.533714 4.250698 52 31 25 
210.517840 -14.720299 9.395640 173 149 144 
163.440536 -313.741240 42.822035 93 60 62 
158.401362 -327.011350 23.630141 35 14 21 
160.234498 -324.982099 24.924083 23 15 74 
165.125252 -315.325069 39.540336 35 16 24 
178.128604 -281.773170 79.093009 98 106 110 
171.928453 -293.749626 46.255353 122 130 134 
163.936608 -321.965424 31.473930 40 20 23 
178.443122 -285.882842 74.704264 91 94 99 
178.443122 -285.882842 74.704264 91 94 99 
166.742204 -323.770453 36.614789 57 51 56 
179.280633 -289.232547 71.592847 140 146 150 
164.070690 -329.458804 13.651795 97 64 63 
178.589988 -291.491433 60.810054 137 145 149 
165.374328 -327.642177 16.697052 41 13 17 
165.054942 -331.426921 20.072070 41 13 17 
169.477332 -322.066883 26.072211 32 13 24 
169.453290 -325.827555 33.737500 129 125 140 
171.859276 -320.304834 34.753295 127 129 136 
172.827790 -327.243405 56.496810 61 32 29 
174.221171 -325.388331 28.887963 42 25 55 
183.977395 -299.078644 47.341645 121 127 131 
177.213455 -321.649504 35.773526 60 54 60 
173.191338 -331.092581 18.743588 97 68 64 
161.157366 -372.384784 5.872625 169 150 144 
176.348439 -326.168932 34.457322 131 121 134 
175.517796 -327.684171 14.054983 116 84 78 
184.403091 -330.129867 24.716162 42 20 34 
184.769371 -328.796853 21.682500 114 90 96 
194.942463 -301.462798 50.637901 120 127 128 
193.418209 -309.791737 40.280988 59 22 15 
186.380632 -330.616144 17.641529 117 89 89 
186.981831 -330.554505 19.505002 56 24 24 
188.971784 -321.877294 3.050338 31 0 0 
290.802269 -26.045987 7.784167 45 30 26 
290.802269 -26.045987 7.784167 45 30 26 
295.527609 -14.002449 8.017124 170 151 147 
298.382089 -5.435261 8.005032 39 19 12 
298.382089 -5.435261 8.005032 39 19 12 
215.226729 -301.064206 44.181363 68 24 20 
209.131282 -320.573479 36.079049 100 81 78 
209.953176 -316.357043 29.636507 71 65 60 
209.953176 -316.357043 29.636507 71 65 60 
209.953176 -316.357043 29.636507 71 65 60 
190.862528 -378.560874 3.758125 41 23 20 
219.879806 -296.677065 51.281915 171 149 146 
191.331929 -393.878315 3.258668 45 27 24 
217.875195 -312.645721 30.376037 97 77 74 
304.851888 -21.814962 4.716711 44 29 25 
196.205863 -387.458548 6.627677 166 149 143 
225.264954 -303.229919 38.332296 67 25 19 
210.460009 -348.707982 4.091062 171 150 144 
197.518661 -394.093386 5.004411 50 32 29 
314.979810 -16.059781 7.133635 167 143 138 
224.512227 -318.981278 11.848681 62 22 16 
224.512227 -318.981278 11.848681 62 22 16 
207.344064 -384.017508 8.135732 46 36 31 
323.657787 -12.823531 7.180630 158 145 138 
323.657787 -12.823531 7.180630 158 145 138 
298.227254 -97.178297 5.559995 170 150 144 
229.711268 -322.566988 5.060622 23 8 4 
294.370434 -116.740458 4.432230 44 32 25 
294.370434 -116.740458 4.432230 44 32 25 
309.380175 -88.162494 3.043046 167 152 148 
309.380175 -88.162494 3.043046 167 152 148 
214.297699 -393.648038 4.786852 167 149 146 
216.769161 -395.401194 2.513087 136 118 115 
216.769161 -395.401194 2.513087 136 118 115 
216.769161 -395.401194 2.513087 136 118 115 
306.746550 -115.826157 5.940331 170 145 143 
316.163723 -104.691754 2.713730 50 28 25 
226.064771 -387.100795 4.419438 47 32 28 
226.064771 -387.100795 4.419438 47 32 28 
316.035326 -116.823921 5.083360 175 148 146 
324.754653 -100.865306 2.912287 171 151 143 
260.720878 -298.088165 29.338280 173 152 146 
331.829097 -80.898796 0.342135 44 33 29 
323.812965 -108.537669 0.610184 43 24 19 
300.745561 -195.896415 3.856853 48 35 31 
300.745561 -195.896415 3.856853 48 35 31 
293.156601 -220.668437 6.929553 46 33 29 
293.156601 -220.668437 6.929553 46 33 29 
300.507860 -202.589852 2.761885 165 145 142 
330.754525 -114.973322 2.487656 46 30 28 
312.750618 -184.474942 1.016576 44 31 27 
306.604277 -215.071733 5.719276 163 145 142 
310.700709 -205.801211 3.541753 38 20 16 
316.678246 -206.160019 1.539816 166 149 143 
316.678246 -206.160019 1.539816 166 149 143 
325.742189 -189.824369 2.540732 172 148 143 
323.662302 -206.136200 5.011315 52 33 27 
323.662302 -206.136200 5.011315 52 33 27 
333.700051 -180.053921 2.193091 46 32 28 
310.468443 -251.486712 2.993215 165 144 138 
327.029321 -211.491345 2.713438 170 150 147 
327.029321 -211.491345 2.713438 170 150 147 
332.997016 -200.505550 3.393622 48 31 25 
300.443147 -290.903373 3.885392 173 154 148 
295.045660 -320.507412 7.095699 46 32 25 
295.045660 -320.507412 7.095699 46 32 25 
333.088330 -218.898117 4.237986 51 32 29 
303.399017 -303.116519 5.689956 168 151 145 
305.075533 -318.258257 4.234160 46 31 27 
309.535064 -312.930077 8.842330 171 154 148 
317.325344 -297.404689 9.370252 42 23 20 
322.469029 -290.300918 6.498717 164 151 144 
317.558356 -307.043355 5.272657 54 35 29 
317.558356 -307.043355 5.272657 54 35 29 
325.237168 -294.267354 4.083180 170 151 145 
293.057829 -382.768514 6.877327 51 36 32 
293.057829 -382.768514 6.877327 51 36 32 
322.674827 -306.322865 5.219818 168 149 143 
332.957179 -289.058202 6.634805 48 34 27 
326.159421 -310.047151 3.175695 169 150 144 
301.428372 -382.646115 8.556356 44 31 27 
313.231315 -354.428758 6.243196 166 149 143 
301.078122 -388.596140 5.542409 164 151 142 
310.301086 -381.593584 5.264765 48 34 27 
315.943522 -391.473051 7.540729 170 156 149 
327.232576 -387.562451 2.909843 170 156 150 
332.426303 -397.827091 2.493635 43 30 26 
16.021474 -382.385858 0.114861 39 30 23 
84.607673 -19.043608 1.642203 43 26 20 
100.804218 -6.235766 0.988783 45 26 20 
107.978334 -13.287443 1.803675 168 151 145 
107.978334 -13.287443 1.803675 168 151 145 
84.635825 -182.855942 3.207767 43 30 26 
110.019385 -2.299680 0.711416 35 21 14 
83.053121 -214.236276 2.639835 47 33 26 
101.391897 -106.566081 0.655709 165 143 140 
105.032803 -85.984945 0.966835 42 28 26 
93.550173 -203.834111 3.051943 171 150 144 
93.550173 -203.834111 3.051943 171 150 144 
97.920192 -186.318073 4.298514 164 147 141 
97.920192 -186.318073 4.298514 164 147 141 
83.522289 -285.941956 2.805518 48 35 31 
97.973076 -196.658645 5.540361 47 31 25 
110.759687 -110.392304 1.174098 164 141 140 
97.154716 -202.934432 0.556297 172 151 145 
117.430758 -91.191680 1.474841 162 144 138 
100.678150 -202.328839 3.570978 171 150 144 
100.678150 -202.328839 3.570978 171 150 144 
88.471643 -294.766448 0.250511 165 150 146 
107.267114 -198.092512 2.255480 46 31 27 
107.267114 -198.092512 2.255480 46 31 27 
89.576590 -312.271761 2.920797 163 150 146 
89.576590 -312.271761 2.920797 163 150 146 
122.594898 -109.641275 1.235567 41 27 25 
122.594898 -109.641275 1.235567 41 27 25 
106.563975 -216.307239 2.453093 52 36 29 
115.202880 -203.278164 3.249351 43 30 26 
115.202880 -203.278164 3.249351 43 30 26 
99.338058 -300.502495 1.563329 49 36 27 
115.449833 -211.861450 3.279937 168 150 144 
116.264254 -211.782782 7.688378 33 22 17 
107.288895 -290.777947 0.937972 172 154 151 
97.943350 -380.262217 4.086137 47 33 31 
153.645596 -84.342159 26.497318 166 145 139 
97.363442 -395.199225 5.109362 164 150 143 
97.363442 -395.199225 5.109362 164 150 143 
100.571064 -387.382851 4.093384 41 26 22 
99.731616 -399.700804 1.018480 51 37 30 
105.843028 -390.186213 3.028865 169 151 148 
107.298578 -385.627470 3.713563 167 152 148 
107.167087 -399.538525 3.981799 168 150 147 
123.332187 -317.325144 0.785925 48 33 29 
113.729215 -397.331153 6.979137 49 35 28 
113.729215 -397.331153 6.979137 49 35 28 
188.396371 -33.212267 16.042012 36 14 11 
119.740131 -384.938729 4.596016 45 33 27 
135.771163 -305.375846 0.601491 159 141 140 
192.860853 -24.449768 14.500061 168 148 145 
210.827568 -13.512929 8.691729 173 150 143 
217.429326 -2.203047 8.707759 38 23 16 
158.603135 -325.360113 22.135254 36 15 21 
175.460417 -284.097765 84.081169 134 144 148 
181.240886 -265.992493 97.208119 134 142 146 
171.062633 -299.880348 51.822117 123 131 135 
168.428142 -311.645635 41.319565 56 27 23 
168.908654 -325.547185 29.122833 30 14 25 
169.137036 -327.652180 35.456557 128 126 140 
171.339753 -323.454980 37.558283 125 127 134 
171.339753 -323.454980 37.558283 125 127 134 
171.828747 -323.984919 35.734610 90 94 103 
186.081650 -278.356115 95.313156 136 149 152 
174.803831 -318.053469 42.510102 49 17 21 
160.625068 -372.673808 5.871355 169 150 144 
173.731720 -323.231521 29.231373 120 112 134 
175.193189 -325.280391 33.833325 131 128 140 
177.188873 -321.953288 36.122582 61 54 60 
183.746148 -299.999649 48.204656 119 122 127 
176.399108 -330.105482 33.216169 45 18 23 
191.084824 -287.235260 71.521703 86 94 98 
199.057179 -281.558787 84.801766 131 141 145 
194.279244 -304.274882 52.985747 121 128 129 
188.098467 -326.748795 7.496278 36 5 5 
197.739570 -323.029619 29.701813 82 61 60 
197.739570 -323.029619 29.701813 82 61 60 
206.708713 -300.300592 51.202657 113 119 120 
190.865910 -395.995752 5.536253 45 27 24 
210.306645 -325.585760 37.982414 89 80 75 
195.842283 -388.696663 7.912885 165 148 142 
294.959754 -16.828460 9.582642 168 151 145 
298.950608 -3.682808 6.756678 41 22 15 
298.950608 -3.682808 6.756678 41 22 15 
197.196262 -395.778676 6.805772 50 32 29 
197.196262 -395.778676 6.805772 50 32 29 
216.197153 -327.397387 34.402404 110 91 90 
209.827310 -351.791098 6.996970 171 150 144 
218.981027 -328.787087 36.164908 113 90 89 
304.842626 -22.506644 4.974800 45 30 26 
206.598152 -387.227668 11.421538 48 35 31 
226.403750 -315.811827 29.508271 120 88 84 
315.134719 -1.515946 10.039988 46 31 27 
314.090430 -20.203669 9.517856 167 143 138 
315.978409 -23.940703 7.855714 174 154 151 
234.747156 -318.234940 8.905662 59 19 13 
213.388823 -397.055650 8.346835 166 148 145 
213.388823 -397.055650 8.346835 166 148 145 
297.398424 -100.569391 7.753954 171 150 144 
323.483038 -14.085202 7.756183 159 146 139 
323.483038 -14.085202 7.756183 159 146 139 
300.526892 -106.636484 3.420158 50 30 27 
308.645123 -91.023178 4.755019 166 151 147 
308.645123 -91.023178 4.755019 166 151 147 
305.810302 -119.335614 8.326501 169 144 142 
315.278694 -90.903621 7.385935 45 32 28 
314.774990 -109.777198 6.055875 45 23 20 
314.774990 -109.777198 6.055875 45 23 20 
260.358549 -299.558686 31.173456 173 152 146 
293.313783 -196.417918 9.850820 45 32 29 
323.513275 -104.833000 5.646698 170 150 142 
330.328983 -86.444055 3.849607 44 33 29 
292.484713 -223.237484 8.923291 46 33 29 
299.625095 -205.833682 5.153617 164 144 141 
329.594325 -118.563946 4.881008 45 29 27 
329.594325 -118.563946 4.881008 45 29 27 
310.605906 -191.669786 6.354060 44 31 27 
306.000026 -217.125334 7.289081 163 145 142 
306.000026 -217.125334 7.289081 163 145 142 
313.762800 -204.731336 5.286285 169 152 146 
317.475406 -201.255024 6.501101 41 21 18 
317.475406 -201.255024 6.501101 41 21 18 
324.753900 -192.825228 4.769321 172 148 143 
324.753900 -192.825228 4.769321 172 148 143 
322.454816 -209.795441 7.793479 51 32 26 
333.245141 -181.566680 3.277686 44 30 27 
300.001889 -292.308655 5.142559 174 155 149 
326.282500 -213.795634 4.457055 169 149 146 
332.156838 -203.124869 5.372693 48 31 25 
294.193236 -322.679761 9.174103 46 32 25 
332.651607 -220.186248 5.162240 51 32 29 
310.644226 -310.028097 6.341865 168 151 145 
321.675393 -292.408178 8.346990 164 152 145 
324.425136 -296.350771 5.939077 170 151 145 
332.670245 -290.205261 7.552301 48 34 27 
332.670245 -290.205261 7.552301 48 34 27 
325.546863 -311.622440 4.628826 169 150 144 
300.334980 -390.429940 7.486678 164 151 142 
312.181477 -357.079587 8.811380 166 149 143 
309.471647 -383.683571 7.467170 48 34 27 
332.894272 -320.591658 5.751840 49 31 28 
315.976747 -391.474610 7.650745 170 156 149 
315.976747 -391.474610 7.650745 170 156 149 
326.810389 -388.485363 3.943091 170 156 150 
334.525442 -380.185453 2.789680 49 35 28 
332.269682 -397.833862 2.689447 43 30 26 
14.399804 -202.396971 1.239914 160 141 140 
2.545304 -392.050838 0.026728 41 31 27 
84.893365 -18.692633 1.830008 43 26 20 
100.960759 -10.925306 3.994965 45 26 20 
100.885596 -14.421172 0.133976 42 28 21 
108.443365 -12.617902 1.548361 168 151 145 
90.381513 -195.373941 3.190880 169 150 144 
90.381513 -195.373941 3.190880 169 150 144 
105.387462 -86.474094 1.486052 42 28 26 
93.893420 -202.899760 2.461298 171 150 144 
93.893420 -202.899760 2.461298 171 150 144 
83.758133 -287.331488 4.042896 48 35 31 
98.237687 -185.073951 3.472177 166 149 143 
98.237687 -185.073951 3.472177 166 149 143 
98.228178 -197.799467 6.482944 47 30 24 
111.069954 -111.253132 1.871790 165 142 141 
88.659890 -299.064575 3.681745 167 152 148 
91.130624 -294.018341 0.909263 164 151 147 
117.751490 -92.307115 2.315612 161 144 138 
107.509445 -197.785364 2.303036 45 31 26 
123.104018 -110.372008 1.870661 41 27 25 
99.691374 -300.414883 1.382976 50 36 29 
115.607517 -190.186700 2.928564 171 150 144 
115.564463 -203.211017 3.245047 43 30 26 
115.564463 -203.211017 3.245047 43 30 26 
115.675845 -212.810495 4.048243 167 149 143 
116.361035 -209.022927 5.844337 40 27 23 
107.556617 -291.651035 1.641115 172 154 151 
97.616078 -395.296967 4.987716 164 150 143 
97.616078 -395.296967 4.987716 164 150 143 
120.352017 -287.472058 0.402580 50 35 31 
153.840611 -89.157001 30.099915 166 145 139 
107.563876 -387.004959 5.120252 166 152 148 
123.579638 -318.139420 1.451832 48 33 29 
120.115193 -384.866966 4.414897 45 32 28 
136.145407 -305.204383 0.585662 158 140 139 
190.048757 -11.989609 12.439532 46 26 23 
194.079344 -19.194029 11.071179 167 147 144 
212.012791 -9.095503 5.638407 173 150 143 
218.075983 -1.065638 7.673382 37 21 14 
184.324122 -326.001809 14.727396 108 80 80 
191.210174 -396.113910 5.713372 45 27 24 
196.531779 -387.235289 6.529264 165 148 142 
198.034561 -393.237714 4.313871 49 31 28 
198.034561 -393.237714 4.313871 49 31 28 
210.572498 -349.852714 5.232163 171 150 144 
290.645402 -28.436827 8.397855 45 30 26 
207.499708 -384.362978 8.664319 47 35 31 
214.488358 -393.663928 5.036133 165 147 144 
214.488358 -393.663928 5.036133 165 147 144 
315.889491 -14.015874 4.882478 168 144 139 
299.128750 -95.131733 3.481928 170 150 144 
295.545270 -113.474795 1.627669 44 32 25 
325.787821 -6.018470 1.914952 161 147 140 
331.155769 -14.224955 0.311834 44 32 25 
307.419130 -113.746788 3.787138 170 145 143 
317.083802 -85.592171 3.144493 46 33 29 
325.440702 -98.922952 0.789698 171 151 143 
300.188441 -198.208237 5.205613 49 36 32 
300.607307 -202.599748 2.367410 164 144 141 
312.630142 -185.557076 1.346283 44 30 28 
307.432827 -212.613045 3.463491 163 145 142 
307.432827 -212.613045 3.463491 163 145 142 
323.229217 -207.192367 5.411845 51 32 26 
300.898659 -289.536942 2.613207 172 153 147 
327.840429 -208.819781 0.214341 169 149 146 
327.840429 -208.819781 0.214341 169 149 146 
295.140692 -319.115332 6.071552 46 32 25 
303.007840 -304.513768 6.893232 168 151 145 
293.733054 -380.538545 5.070320 51 36 32 
318.938718 -302.765967 1.535223 54 35 29 
326.267544 -290.714201 1.053872 170 151 145 
327.034191 -306.930120 0.463118 169 150 144 
301.565196 -386.718683 4.084692 164 151 142 
313.152430 -354.014764 6.077981 166 149 143 
310.638629 -380.294376 4.354646 48 34 27 
334.871205 -314.831577 0.696780 49 31 28 
317.105879 -387.845163 4.364415 170 156 149 
317.105879 -387.845163 4.364415 170 156 149 
319.221707 -396.771661 4.859839 53 40 31 
327.960769 -384.613169 0.421781 170 156 149 
7.194287 -98.575305 3.718507 162 141 135 
14.342736 -1.236545 2.366599 163 145 137 
14.342736 -1.236545 2.366599 163 145 137 
5.361259 -183.484906 3.897475 42 27 24 
4.268670 -199.383479 0.599976 43 29 25 
13.191252 -110.115825 5.666839 38 20 17 
13.191252 -110.115825 5.666839 38 20 17 
14.473575 -94.022434 3.148156 160 138 135 
20.142324 -15.846291 0.527373 38 28 23 
14.594504 -207.024907 4.997750 161 142 141 
14.841081 -201.077378 2.889334 161 145 143 
2.541836 -395.876566 3.747094 42 32 27 
3.420924 -386.661515 3.171809 158 144 142 
11.242053 -310.301120 4.587628 169 151 148 
22.038026 -195.263817 3.232316 38 28 23 
101.083467 -18.821659 3.135085 42 28 21 
92.889073 -95.486979 3.804659 162 145 139 
85.282222 -187.629973 7.362122 43 30 26 
108.346181 -20.034428 6.272427 162 147 141 
110.680589 -5.605101 3.000875 36 20 14 
110.680589 -5.605101 3.000875 36 20 14 
90.552650 -198.199429 5.325575 170 151 145 
101.805417 -111.088617 4.051020 165 143 140 
105.492561 -90.268364 4.170215 42 28 26 
98.288356 -188.675627 6.311114 166 149 143 
98.288356 -188.675627 6.311114 166 149 143 
98.227114 -202.229000 9.982892 47 30 24 
98.227114 -202.229000 9.982892 47 30 24 
88.840000 -300.129447 4.672831 164 149 145 
91.138449 -296.867570 3.458680 165 152 148 
117.838883 -96.116390 4.975712 162 144 138 
117.838883 -96.116390 4.975712 162 144 138 
106.976619 -218.012072 3.928729 50 36 29 
99.763372 -302.325771 3.153058 50 36 28 
115.785664 -204.709429 4.479892 43 30 25 
115.785664 -204.709429 4.479892 43 30 25 
115.855998 -214.682635 5.601662 167 149 143 
116.835342 -207.547815 4.832783 38 25 21 
107.639988 -294.205828 3.940729 173 155 152 
107.639988 -294.205828 3.940729 173 155 152 
97.681711 -397.153957 6.957067 163 149 142 
97.681711 -397.153957 6.957067 163 149 142 
107.052488 -382.491906 9.763179 47 33 31 
107.606282 -388.977490 7.026871 166 152 148 
120.147179 -386.861514 6.460903 45 32 28 
189.989662 -15.519855 14.491451 46 26 23 
136.280299 -328.611744 2.679213 117 107 102 
218.263160 -2.417191 8.329241 37 21 15 
171.534830 -300.123311 52.276533 123 131 135 
167.726653 -319.169466 48.008873 55 26 22 
160.432384 -378.747048 11.483452 169 150 144 
175.427563 -326.958714 35.547315 133 131 144 
177.913318 -334.245288 19.414520 57 20 15 
185.905162 -325.957599 4.207332 112 90 87 
188.982177 -325.228510 6.247472 41 10 9 
193.215135 -312.214769 42.505686 59 22 15 
196.693070 -387.655041 7.173679 164 147 141 
198.237192 -393.525833 4.805687 49 31 28 
198.237192 -393.525833 4.805687 49 31 28 
210.594054 -350.731424 6.241632 171 150 144 
202.315147 -394.661524 12.838085 45 30 26 
297.411571 -9.158052 3.707974 169 151 147 
206.992983 -387.495706 12.017585 47 35 31 
291.903271 -85.234847 2.154840 51 35 33 
214.427200 -394.889420 6.482930 167 149 146 
316.654772 -11.904254 3.063802 167 143 138 
299.534864 -94.058098 2.504526 169 149 144 
325.850358 -6.602036 1.777787 158 145 138 
325.850358 -6.602036 1.777787 158 145 138 
307.832183 -113.162900 3.231415 169 144 142 
317.118610 -86.281022 3.252224 47 34 30 
294.972657 -190.593925 5.080553 45 32 29 
317.631877 -112.239733 0.919550 175 148 146 
325.122332 -100.064283 1.372197 170 150 142 
299.519958 -200.593900 7.041777 49 36 32 
300.888262 -202.184856 1.970122 165 145 142 
300.888262 -202.184856 1.970122 165 145 142 
312.730237 -184.705228 0.565566 44 31 27 
307.773439 -211.846728 2.796295 164 146 143 
307.773439 -211.846728 2.796295 164 146 143 
301.117349 -288.840090 2.157770 173 154 148 
294.596320 -321.351652 8.204525 46 32 25 
303.117372 -304.492541 6.988978 168 151 145 
334.362658 -214.727995 0.403237 51 32 29 
293.367710 -381.299859 6.175209 51 36 32 
317.206907 -311.224199 1.898975 169 150 144 
326.758784 -307.165591 0.835196 169 150 144 
301.348159 -386.879420 4.652654 164 151 142 
312.773393 -354.508853 6.855910 166 149 143 
334.463858 -315.157500 1.079295 49 31 28 
316.871514 -387.915277 4.871407 169 155 148 
316.871514 -387.915277 4.871407 169 155 148 
318.956035 -396.709150 5.280660 53 40 31 
327.664703 -384.546376 0.813360 170 156 149 
4.861799 -397.381176 11.983452 154 136 133 
8.343872 -317.729530 12.786057 153 134 128 
17.135493 -394.473760 9.782510 33 25 21 
17.135493 -394.473760 9.782510 33 25 21 
13.621239 -323.937373 15.771023 153 135 132 
6.388634 -215.577389 13.671332 36 22 20 
16.152595 -319.916187 16.498893 159 141 138 
16.152595 -319.916187 16.498893 159 141 138 
2.789355 -144.138286 23.747561 152 125 123 
8.369357 -205.803142 20.297220 35 23 19 
17.653483 -300.855867 11.713390 34 24 19 
17.653483 -300.855867 11.713390 34 24 19 
20.678338 -325.604563 9.340383 42 25 19 
5.827891 -133.346340 17.228893 18 5 4 
7.341072 -117.585092 22.433114 142 124 118 
0.355710 -29.344718 22.197202 145 133 126 
1.458407 -36.278783 26.296267 145 133 126 
10.881656 -153.536330 26.842141 30 20 15 
1.095396 -18.811552 22.883688 31 12 6 
17.303410 -226.069441 19.580519 147 130 127 
10.513168 -126.798279 23.311017 152 132 124 
15.688071 -202.199479 13.887081 148 124 126 
16.454770 -212.061767 11.777086 134 118 113 
16.454770 -212.061767 11.777086 134 118 113 
7.979465 -25.192828 24.481299 155 137 129 
21.419195 -224.084749 9.215214 37 23 21 
16.430605 -136.339601 24.034746 43 33 28 
16.884828 -127.442571 12.474588 143 125 122 
16.884828 -127.442571 12.474588 143 125 122 
12.921839 -45.615977 31.673971 36 16 8 
17.738306 -119.579869 20.912503 148 126 123 
24.692263 -200.995763 16.810312 35 21 19 
14.244366 -36.209278 16.710131 43 24 18 
16.811176 -45.223340 18.590471 39 28 19 
17.686855 -30.736543 22.025562 157 137 129 
17.686855 -30.736543 22.025562 157 137 129 
24.682391 -138.058339 15.841253 37 24 20 
24.280968 -104.420429 15.917035 39 21 18 
24.560629 -52.194657 24.353208 39 26 17 
24.560629 -52.194657 24.353208 39 26 17 
84.229600 -321.802264 6.316823 40 31 23 
84.966628 -222.633893 9.614495 46 29 23 
89.440638 -392.513040 7.162559 43 30 26 
89.440638 -392.513040 7.162559 43 30 26 
86.212600 -188.669903 7.571410 38 27 24 
90.312373 -305.218716 7.771874 163 150 143 
90.312373 -305.218716 7.771874 163 150 143 
91.693399 -321.603095 10.245687 162 148 141 
91.693399 -321.603095 10.245687 162 148 141 
87.236950 -103.246869 14.545101 38 24 21 
87.486400 -8.521441 14.354097 39 25 18 
92.235409 -203.193310 9.137915 164 140 135 
95.100720 -209.951426 8.291289 168 144 139 
95.100720 -209.951426 8.291289 168 144 139 
95.100720 -209.951426 8.291289 168 144 139 
95.100720 -209.951426 8.291289 168 144 139 
99.216655 -394.367501 3.541423 164 151 147 
99.216655 -394.367501 3.541423 164 151 147 
94.928096 -107.999187 11.995069 157 139 133 
94.928096 -107.999187 11.995069 157 139 133 
96.897167 -116.183867 9.299298 40 26 19 
99.854023 -291.627999 6.548577 46 32 25 
100.045607 -206.605229 12.829863 43 26 20 
100.088843 -197.584965 12.579361 159 140 132 
100.088843 -197.584965 12.579361 159 140 132 
101.340328 -303.006376 3.410767 46 32 25 
101.530645 -103.026678 6.674751 38 25 21 
101.530645 -103.026678 6.674751 38 25 21 
100.948841 -21.902497 12.808403 42 26 22 
103.590057 -118.142541 8.589690 162 139 134 
103.076599 -35.164146 13.531575 50 30 27 
105.650018 -103.788203 2.926112 161 141 138 
108.756550 -379.554814 6.434456 49 31 28 
107.597218 -104.818185 13.143718 39 24 25 
108.652931 -217.744939 3.687082 46 34 27 
109.654599 -299.214361 7.309580 170 151 145 
109.654599 -299.214361 7.309580 170 151 145 
109.033690 -166.561626 15.338176 160 136 131 
109.033690 -166.561626 15.338176 160 136 131 
108.956221 -115.613084 8.941370 33 12 11 
111.577839 -199.908918 8.337024 47 29 23 
111.577839 -199.908918 8.337024 47 29 23 
112.955746 -117.203288 5.749049 159 142 139 
113.013959 -26.030860 15.308376 34 21 17 
115.402606 -395.777210 4.362983 44 27 24 
115.402606 -395.777210 4.362983 44 27 24 
117.552208 -194.774131 5.943545 167 146 140 
117.599101 -214.697961 5.016962 169 148 142 
119.087936 -320.447091 8.380499 168 151 145 
119.550840 -8.402596 7.331614 165 147 139 
119.696811 -102.383171 8.603538 155 136 134 
119.696811 -102.383171 8.603538 155 136 134 
122.437641 -294.268089 4.591096 44 30 28 
122.185742 -384.340368 3.360056 43 32 27 
126.149987 -22.090857 6.050039 43 25 22 
126.149987 -22.090857 6.050039 43 25 22 
125.702182 -193.099942 10.825547 51 37 30 
127.073981 -0.970858 10.608116 41 25 23 
125.903338 -325.250718 7.363408 48 32 30 
127.789936 -87.717213 4.467039 40 27 23 
128.600780 -273.156112 17.850213 165 144 138 
138.292901 -329.348409 3.037101 115 104 99 
142.875714 -228.894440 21.392522 167 146 140 
142.744624 -293.784841 50.403911 180 154 149 
142.821238 -299.167036 54.572511 180 154 149 
143.636270 -284.829519 49.741201 56 28 24 
143.636270 -284.829519 49.741201 56 28 24 
143.932926 -304.218504 35.501376 167 144 136 
157.955182 -309.448646 0.218811 58 23 18 
163.160346 -322.189490 19.709011 102 88 131 
163.531622 -322.324673 17.459272 120 101 134 
165.264789 -315.015405 26.462345 33 14 22 
166.706509 -315.292245 3.505756 52 15 9 
166.753631 -321.298727 6.201627 125 96 92 
166.623431 -320.843170 38.778901 128 114 118 
167.869096 -280.249542 69.351532 144 130 129 
168.121262 -310.270540 23.847361 117 101 106 
167.099071 -342.643944 29.262517 49 19 19 
168.324885 -318.938345 38.678240 131 124 137 
169.655640 -312.927826 27.316358 25 14 18 
169.632585 -308.840003 42.239957 141 110 106 
170.813634 -314.087350 39.716087 142 121 135 
173.056729 -310.666224 16.363609 35 21 28 
173.336530 -297.941234 49.041238 120 132 132 
173.764136 -320.145162 9.932089 40 13 16 
174.065132 -317.847924 19.290938 39 14 25 
174.264482 -316.030575 30.928943 127 129 136 
174.264482 -316.030575 30.928943 127 129 136 
174.184017 -318.354502 39.081793 138 136 153 
175.739482 -296.167786 41.545303 129 129 129 
176.033350 -283.484368 62.322661 72 80 84 
175.162409 -319.267843 27.635673 34 36 43 
175.162409 -319.267843 27.635673 34 36 43 
175.657782 -322.614250 12.594668 125 96 96 
176.426483 -296.958576 57.930861 71 79 83 
176.204250 -323.082936 26.550578 39 26 50 
191.596133 -25.901317 10.552794 31 12 6 
191.596133 -25.901317 10.552794 31 12 6 
177.013560 -319.312626 26.336876 126 121 135 
177.361030 -297.167111 73.415806 142 149 150 
177.956950 -317.454098 26.621547 129 122 130 
178.746683 -284.918729 73.464653 81 89 93 
177.323959 -340.365021 24.417456 116 84 83 
179.632162 -293.486208 45.937280 128 134 139 
178.530185 -331.474974 15.192884 87 52 48 
178.802642 -313.434554 55.939739 121 126 126 
179.975266 -313.430586 18.507937 44 15 18 
179.550235 -318.599656 29.870421 36 26 33 
179.358285 -325.031298 29.999656 43 20 19 
179.621536 -319.993021 33.882290 27 17 24 
180.970028 -284.185413 67.540163 142 149 150 
180.970028 -284.185413 67.540163 142 149 150 
181.692912 -281.421807 74.541728 140 145 151 
180.394842 -336.788202 20.815049 45 11 7 
181.816238 -312.113090 29.200060 140 124 127 
181.726335 -314.201867 34.048455 117 96 100 
182.474768 -305.141232 28.764247 49 19 22 
182.998723 -301.533052 35.654054 49 18 14 
183.396799 -280.075401 71.597115 142 147 153 
183.289515 -310.781746 38.015087 122 92 87 
184.546111 -264.664567 88.824661 117 124 138 
185.329523 -306.445416 52.685166 118 122 122 
185.490127 -318.173856 32.535425 52 20 17 
188.102683 -316.566962 18.695141 109 99 149 
187.580187 -287.412471 86.749558 136 147 148 
206.831066 -17.823282 11.524968 46 26 23 
206.831066 -17.823282 11.524968 46 26 23 
189.432698 -327.053516 16.413683 43 14 14 
191.719097 -287.367299 84.496162 103 109 113 
192.487593 -282.204529 83.511919 146 155 156 
212.255585 -7.447209 16.835151 52 35 31 
194.021547 -282.205246 68.882405 141 149 153 
194.188194 -285.144170 84.100642 143 151 153 
194.994372 -271.184566 94.134057 117 130 146 
198.762869 -271.453900 9.141300 61 21 15 
197.472938 -295.445462 45.460674 117 120 125 
200.243854 -277.643518 106.448828 130 141 149 
200.243854 -277.643518 106.448828 130 141 149 
203.239732 -255.363881 107.085834 34 43 37 
202.608588 -284.737562 97.374127 88 95 101 
208.622464 -300.007362 50.327634 121 127 131 
205.441684 -394.453529 0.246332 52 34 31 
212.175835 -289.636712 39.487660 124 123 126 
212.222068 -314.265249 27.094418 44 41 42 
212.222068 -314.265249 27.094418 44 41 42 
212.222068 -314.265249 27.094418 44 41 42 
208.420055 -399.883084 1.544950 46 32 28 
214.713784 -293.813740 43.388705 123 126 126 
214.377893 -308.844488 28.819673 46 15 11 
209.524953 -384.338866 8.762047 49 36 32 
215.932784 -295.985197 45.608587 60 58 57 
215.932784 -295.985197 45.608587 60 58 57 
217.502410 -296.981558 40.664573 69 25 21 
223.938823 -278.874609 37.358059 171 150 144 
227.998129 -294.831696 9.339890 41 21 15 
227.705748 -308.812862 3.258710 65 23 17 
227.705748 -308.812862 3.258710 65 23 17 
237.996467 -312.999621 3.636796 53 14 9 
339.751847 -9.549055 8.061264 167 149 139 
2.493850 -393.469508 1.254892 37 22 18 
3.673705 -386.062817 2.671283 155 137 134 
8.715814 -294.439371 0.048219 32 17 13 
4.934148 -200.002479 1.918573 37 23 21 
4.934148 -200.002479 1.918573 37 23 21 
6.516917 -189.092255 7.656291 35 23 19 
7.233549 -212.658150 2.981779 142 124 118 
4.263569 -115.919560 4.216390 27 12 9 
15.858320 -383.903185 1.179084 33 24 21 
15.858320 -383.903185 1.179084 33 24 21 
14.619340 -306.803380 6.018300 159 141 138 
14.619340 -306.803380 6.018300 159 141 138 
6.757141 -119.879488 2.994264 33 23 18 
8.091823 -103.753151 6.909939 152 132 124 
6.981617 -20.972674 7.067765 152 132 126 
14.219897 -195.925872 2.877702 39 19 21 
14.219897 -195.925872 2.877702 39 19 21 
15.172445 -208.114910 5.905985 147 128 127 
14.917286 -199.383839 2.122008 116 98 95 
14.917286 -199.383839 2.122008 116 98 95 
14.917286 -199.383839 2.122008 116 98 95 
7.988075 -3.130740 4.338415 40 19 11 
7.988075 -3.130740 4.338415 40 19 11 
8.861852 -20.831564 4.130309 145 132 123 
8.861852 -20.831564 4.130309 145 132 123 
19.420143 -315.186047 0.910769 42 25 19 
15.449372 -99.331000 6.427761 148 126 123 
15.997478 -117.470452 4.691009 143 125 122 
15.997478 -117.470452 4.691009 143 125 122 
14.633521 -21.099487 2.031952 38 27 18 
15.032377 -5.839411 5.075023 158 138 130 
23.000949 -200.663639 6.274732 35 25 20 
22.681501 -119.778452 2.642498 40 27 23 
22.901026 -90.977625 5.982212 40 22 19 
21.600727 -25.218058 6.172243 39 26 17 
85.114851 -21.742562 3.951710 40 22 19 
83.251709 -212.251145 1.935698 46 29 23 
85.158322 -86.573638 3.383842 38 25 22 
82.697117 -314.714762 0.755765 41 32 24 
84.994348 -182.273063 3.141955 38 27 24 
84.994348 -182.273063 3.141955 38 27 24 
88.143184 -112.790106 1.814012 39 26 22 
88.143184 -112.790106 1.814012 39 26 22 
89.156729 -205.866866 0.095880 165 144 138 
89.156729 -205.866866 0.095880 165 144 138 
92.870111 -91.533227 0.957264 158 139 133 
92.870111 -91.533227 0.957264 158 139 133 
87.962873 -387.999484 3.496817 41 28 24 
89.996511 -312.332721 2.826058 161 147 140 
89.996511 -312.332721 2.826058 161 147 140 
93.585037 -187.814310 4.750723 40 23 17 
93.533253 -191.445569 3.350035 173 154 148 
93.745870 -202.111287 2.533457 168 144 139 
93.745870 -202.111287 2.533457 168 144 139 
100.925307 -13.942119 0.201086 51 31 28 
98.666022 -191.384678 8.274650 157 138 130 
98.666022 -191.384678 8.274650 157 138 130 
98.233505 -194.137673 3.872012 43 26 20 
98.233505 -194.137673 3.872012 43 26 20 
105.544762 -89.736138 3.310008 39 24 25 
108.268618 -14.235576 2.450481 171 151 148 
108.613705 -19.202506 5.469128 171 151 148 
98.737802 -379.568449 3.538252 42 29 25 
110.902512 -4.571996 2.217101 30 17 13 
110.902512 -4.571996 2.217101 30 17 13 
107.516817 -194.987870 0.213893 47 30 24 
107.516817 -194.987870 0.213893 47 30 24 
107.937387 -290.893590 0.859492 170 151 145 
117.855459 -90.143131 0.705867 154 135 134 
115.826672 -189.214002 2.140773 168 146 140 
125.936831 -80.915582 0.305018 41 28 24 
117.324153 -312.612688 2.158054 168 150 144 
117.290123 -398.566193 0.674711 169 151 148 
117.290123 -398.566193 0.674711 169 151 148 
120.654294 -383.651929 3.260999 43 32 27 
126.798819 -377.604553 6.440371 42 30 23 
141.617964 -291.893686 49.719029 174 148 143 
149.638496 -305.477949 50.311117 52 14 11 
155.786893 -310.897731 1.225304 58 23 19 
158.917607 -319.854141 20.401780 110 88 105 
161.927687 -322.350980 17.957403 111 92 125 
186.382381 -17.993742 7.902981 169 148 142 
163.992515 -313.663346 30.388904 41 20 19 
164.673543 -313.729553 35.508963 31 13 17 
165.556750 -315.978573 40.739112 31 9 13 
165.071019 -320.757021 30.786816 35 17 29 
165.959367 -316.589373 32.390472 126 111 111 
190.587381 -2.544163 6.692949 43 24 18 
164.932051 -323.809849 8.856655 124 93 88 
164.932051 -323.809849 8.856655 124 93 88 
189.831943 -21.084174 8.848309 31 12 6 
167.128315 -315.787517 36.808711 134 124 137 
167.878359 -318.190404 32.358075 25 14 18 
169.297299 -315.096057 31.416459 134 130 133 
172.114868 -297.680621 49.700741 121 132 133 
194.572022 -13.535692 7.544375 160 141 135 
194.572022 -13.535692 7.544375 160 141 135 
169.508885 -321.998838 13.685634 102 80 95 
170.644506 -318.967493 28.558722 131 124 135 
172.834307 -315.933636 37.618557 141 138 153 
172.584265 -318.848460 33.944642 126 128 135 
177.341317 -282.648146 69.089868 132 139 140 
171.827445 -324.519892 14.229411 40 13 16 
171.827445 -324.519892 14.229411 40 13 16 
175.915717 -303.855164 37.835162 61 30 26 
175.599643 -317.100297 42.222240 53 16 16 
179.866244 -283.340421 68.014231 143 150 151 
180.760993 -278.784991 73.775571 139 144 150 
205.657054 -3.961518 4.742013 47 27 24 
205.657054 -3.961518 4.742013 47 27 24 
177.965224 -315.988564 26.260849 140 128 135 
178.355427 -317.562903 32.586472 22 12 19 
180.478123 -312.374880 35.399405 45 17 20 
180.190840 -313.279993 27.651530 116 103 110 
184.619970 -298.667604 47.469022 120 123 123 
184.113236 -317.736477 32.801704 52 20 18 
185.054710 -323.284430 12.636175 123 96 94 
185.054710 -323.284430 12.636175 123 96 94 
186.460801 -318.362805 20.933011 110 100 150 
186.109251 -329.172994 0.379895 173 155 152 
187.611319 -319.669108 13.835509 128 105 104 
188.763941 -323.802009 11.347821 113 80 80 
194.873844 -298.466849 31.646055 61 21 15 
197.603702 -283.466751 69.642306 59 67 71 
196.145373 -296.511174 47.235520 121 124 129 
205.643355 -312.588779 28.774528 116 92 91 
205.896000 -311.505245 26.433964 130 109 108 
208.030051 -295.086535 47.526468 121 127 131 
207.583363 -312.015527 25.738419 45 35 37 
211.021338 -308.373468 23.040305 81 78 79 
211.021338 -308.373468 23.040305 81 78 79 
211.021338 -308.373468 23.040305 81 78 79 
213.453797 -294.607478 45.088554 121 124 125 
211.954977 -307.733416 22.342662 45 42 43 
214.761195 -296.545538 47.131570 59 57 56 
211.339298 -347.611673 3.150933 172 151 145 
205.813385 -398.612420 10.017749 169 151 148 
205.813385 -398.612420 10.017749 169 151 148 
208.577006 -381.183270 5.510409 49 36 32 
223.220908 -312.633486 23.114571 121 105 103 
225.209672 -304.614024 18.231945 35 16 11 
215.454117 -390.107364 1.496554 168 150 147 
225.767710 -313.694797 7.544544 65 23 17 
230.170091 -315.532495 2.534887 39 9 3 
236.356103 -314.758272 5.890517 58 18 14 
236.754012 -315.224509 1.270638 162 139 134 
226.932254 -385.745491 3.090682 46 33 29 
226.932254 -385.745491 3.090682 46 33 29 
263.051064 -290.111354 24.267284 173 152 146 
312.425626 -150.635325 1.105792 169 148 142 
296.747213 -312.855154 1.008335 45 32 28 
296.747213 -312.855154 1.008335 45 32 28 
304.286106 -301.190797 4.126300 170 150 147 
294.893312 -377.415537 1.894854 49 36 31 
295.982063 -398.165876 1.101242 46 33 29 
302.729370 -383.972177 1.466320 175 158 152 
324.190247 -284.416518 1.489328 186 167 161 
324.190247 -284.416518 1.489328 186 167 161 
314.637869 -348.705006 0.977778 170 151 145 
304.110678 -399.756814 4.680712 48 35 31 
304.110678 -399.756814 4.680712 48 35 31 
304.110678 -399.756814 4.680712 48 35 31 
311.292070 -378.992054 2.913189 50 37 33 
318.260400 -385.303579 1.953107 175 158 152 
318.260400 -385.303579 1.953107 175 158 152 
319.654629 -396.650515 4.861319 50 35 31 
125.320871 -263.493741 11.008155 165 144 138 
140.184529 -270.516240 41.051551 40 17 11 
160.046874 -317.262083 16.234975 101 86 119 
162.454154 -313.054756 30.036708 45 24 23 
163.729311 -315.825460 26.796956 37 17 27 
189.517258 -2.204367 2.031284 37 18 12 
164.600105 -313.815993 30.359293 131 118 118 
164.942861 -311.190123 25.401541 111 95 100 
166.534952 -300.372513 32.334078 54 24 18 
165.834561 -308.518454 30.970653 138 127 139 
166.533210 -312.982634 28.185489 23 16 18 
192.807900 -6.766662 4.529117 161 142 136 
168.148751 -309.148004 36.619458 148 123 134 
167.910433 -311.473137 28.577190 126 122 125 
170.821357 -294.573882 47.347923 121 132 133 
169.122229 -319.190328 24.306443 36 22 34 
168.570205 -324.787684 10.573248 40 16 18 
175.890473 -279.483973 61.579661 142 149 150 
171.355785 -312.623645 28.939337 126 128 135 
175.021655 -314.872702 25.266959 129 122 130 
181.118756 -277.078217 70.966686 140 145 151 
173.497410 -323.562834 9.311384 50 19 18 
