ply
format ascii 1.0
element vertex 1119
property float x
property float y
property float z
property uchar red
property uchar green
property uchar blue
end_header
17.120041 -316.968831 0.636937 41 31 26 
89.905040 -194.295779 2.724372 160 142 139 
98.665892 -185.778696 3.404767 159 141 138 
81.918995 -219.339422 5.703540 46 27 26 
194.155684 -18.572099 10.060546 151 136 132 
194.155684 -18.572099 10.060546 151 136 132 
97.535323 -195.847627 4.887832 45 26 24 
97.535323 -195.847627 4.887832 45 26 24 
207.904285 -0.750855 0.274879 48 33 29 
213.986323 -8.116103 0.707799 153 135 132 
1.249321 -385.273906 1.625391 158 141 135 
215.812357 -12.686244 1.320871 157 142 138 
6.749524 -386.353040 3.587896 39 26 22 
106.123038 -217.155419 1.753271 47 28 27 
223.960915 -16.049987 3.285013 39 28 25 
14.100055 -384.113605 0.802701 44 31 27 
191.176836 -82.960117 7.615104 36 17 11 
211.566510 -49.159826 2.461203 159 138 132 
211.566510 -49.159826 2.461203 159 138 132 
201.674855 -111.352688 3.302691 30 13 7 
201.674855 -111.352688 3.302691 30 13 7 
218.470067 -94.351439 1.775544 37 20 14 
218.470067 -94.351439 1.775544 37 20 14 
88.764040 -313.569704 6.276266 158 143 139 
143.849264 -250.005590 0.810318 162 141 135 
192.259686 -179.079448 4.615987 39 25 18 
199.056514 -200.011041 1.514333 149 127 124 
101.152894 -386.378841 1.655820 44 29 25 
101.152894 -386.378841 1.655820 44 29 25 
108.249727 -383.705778 1.826508 162 147 143 
121.786214 -381.617148 1.053142 43 30 26 
113.706425 -395.558589 5.541172 41 26 22 
185.126464 -304.190823 1.619708 62 55 59 
192.138064 -318.017835 1.624054 22 17 18 
158.394790 -382.759390 3.645129 159 141 138 
212.126884 -349.638418 7.540746 158 140 137 
212.126884 -349.638418 7.540746 158 140 137 
211.130516 -377.711243 5.454445 44 31 27 
3.360840 -0.018550 5.106179 37 18 17 
1.939764 -15.441373 7.121739 159 137 134 
1.939764 -15.441373 7.121739 159 137 134 
5.175700 -97.470196 6.441939 156 135 129 
9.690309 -105.793645 5.047984 40 26 19 
13.526504 -97.649038 3.631998 159 141 133 
10.242179 -120.529524 2.011660 42 27 23 
19.272077 -119.315275 3.118510 39 29 24 
19.272077 -119.315275 3.118510 39 29 24 
2.650385 -181.657269 5.238201 42 29 27 
92.575713 -2.153149 3.129081 157 140 134 
91.187294 -15.999148 4.149594 155 137 134 
100.588193 -8.504835 2.633311 36 24 20 
3.102279 -211.315620 2.834377 155 138 132 
3.102279 -211.315620 2.834377 155 138 132 
110.049484 -6.597102 2.355197 33 15 12 
110.049484 -6.597102 2.355197 33 15 12 
83.623626 -84.795140 4.426859 42 28 26 
47.338961 -160.071547 11.091275 156 135 129 
47.338961 -160.071547 11.091275 156 135 129 
91.901104 -93.336574 2.964365 155 137 134 
105.065141 -87.696081 3.936255 39 26 22 
100.597263 -109.377501 2.979849 151 136 132 
100.597263 -109.377501 2.979849 151 136 132 
108.326772 -105.667043 4.724789 46 31 27 
117.124126 -93.237335 2.940231 154 136 133 
110.476463 -111.830624 1.671658 164 144 141 
110.476463 -111.830624 1.671658 164 144 141 
4.708917 -306.752726 2.427707 161 143 140 
98.278809 -186.236114 3.868344 160 142 139 
206.492163 -3.018099 1.560379 49 34 30 
206.492163 -3.018099 1.560379 49 34 30 
97.255398 -196.167408 5.169774 43 25 22 
97.255398 -196.167408 5.169774 43 25 22 
215.270759 -13.091491 1.178029 157 142 138 
223.879889 -16.026569 2.797880 40 29 26 
190.668630 -83.687476 7.855366 36 17 11 
209.187551 -53.590060 5.871215 159 138 132 
209.187551 -53.590060 5.871215 159 138 132 
13.961281 -384.521097 1.404768 44 31 27 
198.746122 -107.715506 4.445837 161 142 136 
215.052853 -90.486447 1.436904 159 138 132 
97.165802 -303.086736 8.410248 43 28 24 
107.403506 -291.042586 1.188797 163 148 144 
142.782974 -251.774275 3.050783 162 141 135 
192.582667 -178.473177 3.686112 41 27 20 
196.839723 -182.701657 1.258302 152 138 131 
88.983574 -383.199209 0.941833 45 32 28 
88.983574 -383.199209 0.941833 45 32 28 
167.489558 -276.559270 0.012389 58 43 44 
101.221819 -386.286132 1.496396 43 28 24 
101.221819 -386.286132 1.496396 43 28 24 
107.959981 -383.951663 2.306959 162 148 144 
106.003614 -389.696594 1.439658 162 144 141 
191.696807 -318.370912 2.098854 21 16 17 
193.866076 -391.037916 1.064721 39 26 22 
210.481020 -377.970245 6.187318 44 31 27 
216.770390 -388.393303 0.304423 161 144 138 
216.770390 -388.393303 0.304423 161 144 138 
3.994763 -8.973675 1.842678 159 137 134 
3.994763 -8.973675 1.842678 159 137 134 
17.755536 -30.855194 5.323098 158 138 135 
6.856196 -92.981231 1.916888 157 136 130 
3.289771 -116.176163 0.747387 40 30 25 
9.216285 -109.066916 8.173001 45 28 22 
19.279159 -101.654097 3.642649 37 23 21 
3.678095 -180.485435 3.606704 37 26 23 
11.906666 -186.316316 3.037367 159 137 134 
82.617107 -23.583813 5.254688 43 27 21 
93.076466 -1.180931 2.470982 155 138 132 
93.076466 -1.180931 2.470982 155 138 132 
12.709613 -201.982332 2.142299 160 138 135 
91.000474 -16.795624 5.130781 153 134 131 
91.000474 -16.795624 5.130781 153 134 131 
94.048930 -18.598084 13.138923 39 24 20 
94.048930 -18.598084 13.138923 39 24 20 
96.232696 -20.119075 12.636745 37 24 20 
100.167839 -18.089601 0.087854 37 24 20 
106.519914 -19.130979 6.008667 159 140 137 
106.519914 -19.130979 6.008667 159 140 137 
84.348071 -83.445039 3.147719 41 28 25 
102.353167 -59.390626 8.481966 156 135 129 
123.494810 -15.546150 0.790378 37 26 22 
123.494810 -15.546150 0.790378 37 26 22 
93.099805 -90.528773 0.781840 154 136 133 
86.456312 -116.983040 4.944846 39 29 24 
105.526541 -86.541745 3.092349 36 26 21 
105.654251 -98.054569 0.105861 127 109 106 
102.002057 -106.160793 0.399555 155 140 136 
102.002057 -106.160793 0.399555 155 140 136 
107.939387 -106.808057 6.242660 41 23 20 
118.282553 -90.357710 0.882283 152 134 131 
110.973099 -110.746255 1.071285 159 140 137 
49.010154 -256.083298 8.013898 155 134 129 
85.546410 -182.816349 4.134444 42 28 26 
103.433436 -154.535325 8.225565 159 138 132 
90.940807 -192.645052 0.803124 161 143 140 
98.319065 -194.457153 3.356049 45 27 24 
0.203818 -395.746207 5.040325 46 31 27 
190.193853 -10.612030 10.743083 44 29 25 
190.193853 -10.612030 10.743083 44 29 25 
5.731475 -388.650524 7.597883 39 26 23 
197.895482 -7.761971 22.633788 44 27 24 
115.539350 -194.150349 3.141665 160 143 140 
115.539350 -194.150349 3.141665 160 143 140 
116.760235 -208.088768 0.361587 160 141 140 
115.928410 -210.341778 1.937299 159 140 139 
224.222737 -14.419685 2.673790 42 28 26 
82.783718 -287.321093 6.663186 43 30 26 
82.783718 -287.321093 6.663186 43 30 26 
190.770033 -83.335791 8.107090 37 18 12 
208.302348 -54.221492 7.268033 157 138 132 
208.302348 -54.221492 7.268033 157 138 132 
82.100261 -306.562731 4.590745 45 30 26 
201.470342 -101.527851 8.016146 162 141 135 
107.375928 -291.896539 1.758581 162 144 141 
211.250666 -113.689024 2.737489 160 143 137 
137.500992 -259.586624 12.534956 162 140 137 
188.223952 -184.720111 10.913893 36 25 18 
294.910933 -10.678309 4.036693 158 139 133 
197.867094 -189.041140 5.083889 158 139 133 
194.487211 -213.530111 2.462977 41 28 24 
194.487211 -213.530111 2.462977 41 28 24 
317.699828 -9.790560 0.556186 156 136 133 
172.673782 -256.072274 4.432600 152 127 125 
166.337599 -277.964819 2.232046 51 36 38 
107.191053 -385.175206 4.207532 159 144 140 
111.904120 -397.722828 9.955249 43 28 24 
111.904120 -397.722828 9.955249 43 28 24 
161.488868 -295.069398 99.920024 73 61 65 
161.488868 -295.069398 99.920024 73 61 65 
188.074784 -277.209549 135.839757 118 105 101 
190.268689 -320.102437 4.805392 24 16 17 
203.620495 -270.365703 134.032810 36 27 24 
223.461981 -294.135635 9.336854 44 30 28 
190.824185 -384.052423 1.856657 39 21 18 
322.620198 -203.258902 2.597149 26 12 10 
191.734582 -393.173930 4.529626 39 26 22 
210.223627 -378.342981 6.240583 44 31 27 
199.564518 -399.398062 0.941809 154 139 135 
297.822051 -276.127638 0.555057 36 24 17 
209.393528 -398.900519 1.874645 44 32 25 
209.393528 -398.900519 1.874645 44 32 25 
215.441939 -393.257177 2.272181 149 135 128 
215.441939 -393.257177 2.272181 149 135 128 
215.441939 -393.257177 2.272181 149 135 128 
307.730342 -295.861156 1.304683 158 140 137 
313.174911 -302.361474 0.866902 149 135 128 
2.410803 -2.270940 7.713793 42 22 19 
1.489176 -16.535853 8.758284 158 136 133 
1.489176 -16.535853 8.758284 158 136 133 
12.121246 -11.994870 7.659396 161 142 139 
12.121246 -11.994870 7.659396 161 142 139 
16.101789 -19.309243 5.618409 36 26 21 
16.101789 -19.309243 5.618409 36 26 21 
4.661888 -98.899722 7.845320 157 136 130 
5.012056 -107.214832 4.464093 155 136 130 
13.065831 -97.379703 4.355556 155 136 130 
19.164730 -83.230440 4.895190 33 24 21 
9.019375 -108.822325 8.060783 44 27 21 
11.031746 -115.209104 5.687560 155 135 129 
11.365443 -187.168745 3.913220 158 137 134 
90.050133 -19.706984 7.697591 152 134 131 
90.050133 -19.706984 7.697591 152 134 131 
3.733973 -210.137097 1.350364 159 141 137 
3.733973 -210.137097 1.350364 159 141 137 
11.325448 -204.916524 5.462299 160 138 135 
98.541696 -15.018283 8.395879 37 24 20 
98.541696 -15.018283 8.395879 37 24 20 
20.009081 -191.910737 2.311452 41 26 22 
97.906463 -24.263805 5.379135 39 26 22 
17.434101 -214.421493 1.889983 39 29 24 
104.701095 -55.726850 5.112859 156 135 129 
91.608035 -94.506522 4.413560 154 136 133 
85.610727 -119.334147 7.177868 39 29 24 
104.685223 -88.935850 5.289552 36 26 21 
101.966736 -106.681682 8.679600 65 50 46 
101.966736 -106.681682 8.679600 65 50 46 
100.425233 -110.200242 4.180539 156 141 137 
100.425233 -110.200242 4.180539 156 141 137 
5.453033 -305.944759 1.122629 160 142 139 
116.726820 -94.585025 4.555217 153 135 132 
111.492750 -110.307312 0.409454 159 140 137 
111.492750 -110.307312 0.409454 159 140 137 
121.693962 -114.179030 3.759009 41 28 24 
121.693962 -114.179030 3.759009 41 28 24 
17.115585 -317.566359 1.318914 40 30 25 
89.494310 -195.925942 4.331635 161 143 140 
190.638378 -11.236491 11.092661 44 29 25 
81.522758 -220.312627 7.035683 48 29 28 
80.231059 -225.582430 5.327398 164 142 140 
97.552050 -196.492241 5.397982 45 27 24 
97.552050 -196.492241 5.397982 45 27 24 
1.395127 -385.552561 1.903592 158 141 135 
1.395127 -385.552561 1.903592 158 141 135 
206.601689 -3.331153 2.432568 36 21 17 
14.251521 -384.687043 1.380109 44 31 27 
114.934024 -211.924949 4.484288 159 142 140 
116.133542 -210.703630 2.034618 159 140 139 
225.026663 -14.777468 2.472396 39 25 23 
189.842765 -86.146703 10.418616 36 17 11 
192.662212 -91.388429 8.886872 155 136 130 
189.967798 -96.876168 13.681161 156 137 131 
82.520114 -288.063981 7.298676 43 30 26 
82.862790 -305.678040 3.031699 44 29 25 
203.520475 -99.476768 5.530312 162 141 135 
99.139292 -293.378261 2.625148 48 33 29 
99.466682 -300.332114 0.376553 45 30 26 
107.042277 -292.943483 2.810712 162 144 141 
192.324715 -179.877485 5.095890 40 26 19 
199.264628 -188.119636 3.559658 159 140 134 
198.490322 -201.484446 2.937153 151 129 126 
145.991351 -290.180985 0.539326 166 148 145 
108.539996 -383.794904 1.747328 159 144 140 
108.539996 -383.794904 1.747328 159 144 140 
187.618920 -273.002433 146.994066 18 15 9 
187.618920 -273.002433 146.994066 18 15 9 
193.667568 -270.193410 148.246887 132 124 119 
193.667568 -270.193410 148.246887 132 124 119 
191.958248 -318.706616 2.431831 22 14 16 
222.633325 -295.608656 11.339938 44 30 28 
244.736635 -287.364417 32.368637 162 142 139 
213.650513 -348.227543 4.641059 158 140 137 
194.178331 -391.128853 0.770721 39 25 21 
210.221103 -378.770595 6.829357 44 31 27 
310.484872 -306.251705 4.343014 127 113 106 
0.835672 -18.779418 10.691613 158 136 133 
0.835672 -18.779418 10.691613 158 136 133 
15.602592 -21.051786 7.118678 36 26 21 
15.602592 -21.051786 7.118678 36 26 21 
4.001131 -100.944296 9.907399 157 136 130 
0.693519 -110.652592 10.769678 160 139 133 
8.059879 -111.450146 10.715165 46 29 23 
1.398031 -185.450702 9.574722 37 26 23 
1.218300 -202.073926 6.023493 46 33 29 
1.218300 -202.073926 6.023493 46 33 29 
9.841909 -190.958033 8.265758 159 137 134 
2.522915 -212.935444 4.731194 158 141 137 
2.522915 -212.935444 4.731194 158 141 137 
90.289128 -19.244510 7.252532 151 134 131 
19.119560 -180.759435 5.024890 40 27 23 
99.061523 -14.138942 7.513073 37 24 20 
109.932407 -7.250852 3.346070 40 22 19 
16.177361 -217.350739 5.630551 39 29 24 
16.177361 -217.350739 5.630551 39 29 24 
106.104955 -21.297039 7.780213 162 142 139 
122.276499 -19.670444 4.057380 37 26 23 
91.320823 -95.241673 5.127675 154 136 133 
85.655532 -119.385791 7.196928 39 29 24 
104.436253 -89.853701 6.041238 37 26 21 
3.197828 -310.262542 7.468046 161 143 140 
100.160071 -110.933924 4.855065 156 141 137 
100.160071 -110.933924 4.855065 156 141 137 
107.667392 -108.113580 7.305361 43 25 22 
117.030743 -93.814453 4.067619 152 134 131 
110.248347 -112.917689 2.974826 160 141 138 
110.248347 -112.917689 2.974826 160 141 138 
15.631170 -320.121021 5.236802 40 30 25 
15.631170 -320.121021 5.236802 40 30 25 
83.758159 -186.672409 8.130647 42 28 26 
83.758159 -186.672409 8.130647 42 28 26 
106.325638 -149.757703 2.811952 159 138 132 
88.751154 -197.367016 6.024984 161 143 140 
97.339296 -189.403041 7.324855 156 138 135 
96.284659 -198.824547 8.094569 47 29 26 
13.014679 -386.544349 4.582320 44 30 27 
115.132124 -212.446767 4.090896 159 140 139 
224.808929 -15.518802 2.815784 40 26 24 
189.886412 -86.486917 10.566861 37 18 12 
202.963438 -100.562888 6.340184 162 141 135 
199.058574 -108.223844 4.460329 160 141 135 
190.621741 -123.220953 7.236079 35 14 8 
197.844968 -113.620037 2.511787 164 145 139 
195.959503 -117.761248 6.194335 163 144 138 
98.361638 -294.537172 4.285243 48 33 29 
88.153662 -315.337031 8.491712 157 142 138 
98.304848 -301.937987 2.719459 45 30 26 
106.677565 -293.078014 3.633135 162 144 141 
141.759238 -254.043228 5.600451 162 140 137 
123.836691 -317.159447 0.588734 42 29 25 
123.836691 -317.159447 0.588734 42 29 25 
145.525916 -290.745601 1.536594 166 148 145 
87.649756 -385.662232 4.483281 42 32 27 
87.649756 -385.662232 4.483281 42 32 27 
167.257430 -277.244768 1.224868 52 37 38 
107.012714 -385.657896 4.883746 159 144 140 
107.012714 -385.657896 4.883746 159 144 140 
120.607763 -383.600681 3.879549 44 31 27 
197.349311 -310.136036 0.665530 106 101 102 
191.613845 -319.291233 3.311936 23 15 17 
223.721282 -294.382621 9.643746 45 30 28 
213.754786 -348.143676 4.588509 158 140 137 
192.265579 -383.048980 0.043099 43 25 22 
199.370502 -381.730944 1.548888 158 140 137 
199.370502 -381.730944 1.548888 158 140 137 
193.580997 -391.741767 1.870485 39 25 21 
2.042280 -6.760383 11.327022 32 19 15 
1.265132 -19.781052 11.152110 159 137 134 
1.265132 -19.781052 11.152110 159 137 134 
9.977221 -8.919964 8.799582 160 138 135 
9.977221 -8.919964 8.799582 160 138 135 
7.637825 -19.062514 9.200496 42 25 19 
16.155785 -21.259744 7.111332 38 25 21 
4.996817 -99.300346 8.219969 155 136 130 
1.440341 -122.578645 7.372245 41 31 26 
10.137165 -104.936589 4.368416 43 26 20 
19.489305 -83.377994 4.702365 34 25 22 
11.084259 -116.351358 6.775034 154 135 129 
9.584765 -124.542595 6.239424 36 27 22 
18.479546 -104.056754 6.556378 38 24 21 
3.032285 -181.189094 4.482797 41 30 27 
11.749641 -186.343034 3.140308 154 134 131 
2.501630 -214.881888 6.972862 158 140 137 
2.501630 -214.881888 6.972862 158 140 137 
83.471179 -21.957770 4.013809 38 24 17 
83.471179 -21.957770 4.013809 38 24 17 
92.779798 -2.201471 3.539268 156 139 134 
90.782773 -17.582600 6.262539 151 136 132 
90.782773 -17.582600 6.262539 151 136 132 
19.081526 -195.487090 5.869577 44 28 24 
15.979201 -219.936387 8.834032 39 29 24 
15.979201 -219.936387 8.834032 39 29 24 
107.964397 -15.905207 3.418678 156 136 133 
81.923440 -79.531742 3.138420 44 25 24 
81.923440 -79.531742 3.138420 44 25 24 
103.532327 -57.722144 7.005496 157 136 130 
3.804307 -292.170509 1.210052 158 143 139 
3.804307 -292.170509 1.210052 158 143 139 
92.273665 -92.751164 2.825867 156 138 135 
7.215021 -297.443357 3.271689 45 30 26 
7.215021 -297.443357 3.271689 45 30 26 
87.651708 -113.918171 2.203530 37 27 22 
4.936463 -307.467803 3.517051 160 142 139 
105.604637 -86.747037 3.195550 37 27 22 
12.068023 -301.833489 3.815014 163 148 144 
100.949001 -108.847080 2.986460 158 143 139 
100.949001 -108.847080 2.986460 158 143 139 
106.305151 -107.680323 4.359713 47 29 26 
106.305151 -107.680323 4.359713 47 29 26 
110.155314 -101.780464 1.719659 46 28 25 
116.978672 -93.907959 4.278812 155 137 134 
112.232897 -110.375928 3.233658 172 154 151 
112.232897 -110.375928 3.233658 172 154 151 
110.155026 -115.554165 2.820958 174 156 153 
85.103796 -184.014950 5.068957 38 29 26 
122.166600 -112.845964 2.675326 39 29 24 
89.702195 -195.563927 3.959989 159 141 138 
1.374196 -385.735711 2.449387 158 141 135 
1.374196 -385.735711 2.449387 158 141 135 
97.940792 -187.551996 5.303576 158 140 137 
127.227535 -126.475377 6.855599 36 19 13 
127.227535 -126.475377 6.855599 36 19 13 
97.542977 -196.359437 5.206745 45 27 24 
97.542977 -196.359437 5.206745 45 27 24 
14.258583 -384.785079 1.810569 43 30 26 
205.432283 -5.768667 4.648695 38 25 21 
205.432283 -5.768667 4.648695 38 25 21 
114.268670 -205.732387 6.032430 54 34 31 
114.268670 -205.732387 6.032430 54 34 31 
116.265208 -209.109326 2.117703 160 141 140 
116.542689 -209.585880 0.782282 160 141 140 
123.785131 -199.039594 1.281967 43 29 22 
82.905435 -287.337156 6.157423 40 30 25 
82.905435 -287.337156 6.157423 40 30 25 
225.584810 -12.909994 1.511764 37 27 22 
124.759269 -214.986531 0.081336 46 28 25 
188.669574 -87.858608 12.072989 47 26 20 
207.028075 -56.515348 9.095741 160 139 133 
192.379543 -86.792939 6.854963 157 138 132 
192.379543 -86.792939 6.854963 157 138 132 
235.770761 -2.411923 14.109509 162 141 135 
82.727872 -305.428318 2.888699 44 31 27 
191.474550 -92.881908 10.410612 155 136 130 
82.374297 -319.475328 4.188811 47 29 26 
99.987634 -292.029883 0.751936 45 30 26 
89.824831 -312.062916 3.770413 156 141 137 
89.824831 -312.062916 3.770413 156 141 137 
187.724131 -127.361282 11.668226 40 19 19 
203.348977 -99.103843 5.115058 161 142 136 
202.325422 -109.987206 1.915130 45 26 25 
229.064208 -79.951120 0.912967 43 30 26 
229.064208 -79.951120 0.912967 43 30 26 
194.399011 -175.699676 0.878009 43 29 22 
201.095802 -167.551298 0.654893 163 141 138 
88.971395 -383.933333 0.643557 44 31 27 
88.971395 -383.933333 0.643557 44 31 27 
199.531486 -187.006078 2.331113 160 141 135 
203.812063 -189.230814 0.219225 42 17 15 
204.043901 -189.340636 0.098022 38 13 11 
199.421623 -199.337706 0.930135 152 130 127 
166.627804 -277.868194 1.426152 82 67 70 
108.146500 -383.985649 2.208144 158 143 139 
106.566357 -389.300209 0.789375 160 142 139 
170.568544 -279.132718 1.260583 102 85 93 
178.605228 -271.906025 72.590827 62 49 53 
173.967612 -289.175390 101.219033 55 44 53 
183.423025 -301.684911 16.290457 73 57 69 
187.186054 -302.203916 15.201056 78 63 72 
187.186054 -302.203916 15.201056 78 63 72 
190.044823 -266.542778 145.015093 119 103 104 
190.044823 -266.542778 145.015093 119 103 104 
194.363065 -261.753770 142.691076 120 103 105 
189.532232 -270.324256 144.308142 16 11 11 
193.186321 -265.102033 143.876275 23 12 14 
188.159484 -274.825120 144.218243 15 5 0 
192.889726 -267.511579 144.798693 180 172 174 
191.975448 -270.214443 145.178055 4 2 3 
193.173371 -269.705758 147.343988 110 100 102 
192.612597 -271.579007 145.080534 118 113 114 
196.680512 -265.921322 143.817973 143 131 133 
196.234244 -270.805833 145.871659 142 136 131 
196.062564 -272.752239 145.429536 14 8 4 
197.406324 -278.496850 141.245020 97 88 85 
196.917258 -281.178280 141.547582 6 0 0 
206.725833 -267.381607 144.150744 164 155 150 
201.878663 -275.155936 144.575192 145 134 131 
200.492026 -279.336507 142.088286 16 9 6 
208.186727 -270.337299 142.077582 145 137 132 
207.514799 -274.080697 141.330399 119 112 109 
203.762733 -283.478716 142.621065 9 2 1 
212.117531 -271.611561 143.301652 129 119 114 
223.889713 -293.659168 9.512468 43 29 27 
209.112356 -279.938318 140.295116 11 4 1 
216.671050 -291.292016 70.539011 81 64 63 
220.977689 -306.804044 0.341584 35 17 14 
213.556695 -277.500498 143.714553 115 100 96 
213.027373 -348.544115 4.988406 158 140 137 
226.972387 -302.443311 116.442382 156 142 140 
227.076409 -394.160288 6.202950 41 28 24 
1.196212 -8.130785 13.031216 32 19 15 
1.196212 -8.130785 13.031216 32 19 15 
0.224422 -22.177979 13.690951 158 136 133 
0.224422 -22.177979 13.690951 158 136 133 
11.129899 -16.656851 11.950268 159 139 136 
11.129899 -16.656851 11.950268 159 139 136 
14.949579 -24.255773 10.043384 38 25 21 
14.949579 -24.255773 10.043384 38 25 21 
3.848956 -102.124730 11.102105 155 136 130 
48.800551 -12.338076 12.433198 153 134 128 
48.800551 -12.338076 12.433198 153 134 128 
8.211141 -110.824491 10.216978 44 27 21 
18.343783 -86.552033 7.880454 35 26 23 
12.237972 -102.520044 8.669967 152 133 127 
12.237972 -102.520044 8.669967 152 133 127 
9.773311 -119.996955 10.479345 153 134 128 
82.251348 -0.071060 11.869594 41 27 25 
82.251348 -0.071060 11.869594 41 27 25 
91.534950 -5.881145 6.695354 156 139 134 
1.192302 -203.488957 7.643308 40 28 24 
10.216687 -190.548387 7.743481 156 136 133 
90.196731 -19.665918 8.112013 151 136 132 
90.196731 -19.665918 8.112013 151 136 132 
4.349764 -209.678741 8.241907 38 23 19 
4.349764 -209.678741 8.241907 38 23 19 
2.698103 -213.702547 5.468586 158 140 137 
2.698103 -213.702547 5.468586 158 140 137 
18.981913 -182.454514 6.517412 42 29 25 
18.981913 -182.454514 6.517412 42 29 25 
10.648749 -207.127253 8.000587 159 137 134 
109.027590 -10.071913 6.061960 41 23 20 
109.027590 -10.071913 6.061960 41 23 20 
105.621990 -22.548865 9.153097 155 135 132 
105.621990 -22.548865 9.153097 155 135 132 
45.306615 -165.883002 18.194784 156 135 129 
45.306615 -165.883002 18.194784 156 135 129 
102.870268 -58.398886 7.800939 157 136 130 
102.870268 -58.398886 7.800939 157 136 130 
121.581774 -22.045147 6.364558 37 27 22 
91.214775 -95.824995 5.769883 155 137 134 
85.874448 -118.972015 6.957306 37 27 22 
104.946469 -88.934136 5.312559 37 27 22 
99.926735 -111.921855 5.840275 157 142 138 
13.452916 -287.996012 3.353248 41 31 26 
105.440620 -110.512751 7.178149 50 32 29 
4.001638 -309.521145 6.126165 160 142 139 
107.495034 -108.631344 8.228637 44 26 23 
2.357569 -316.432241 15.433568 160 142 139 
117.004483 -94.497438 4.731132 156 138 135 
125.765868 -82.751826 3.476544 40 28 23 
110.838122 -112.229342 2.295631 155 135 132 
128.208454 -78.993896 3.329019 32 20 14 
128.208454 -78.993896 3.329019 32 20 14 
16.286583 -319.566743 4.454360 43 30 26 
88.977774 -197.560572 6.080656 160 142 139 
97.061680 -190.243305 8.026346 159 141 138 
80.742053 -222.240913 9.481182 46 28 25 
193.930995 -19.757026 11.138051 151 131 128 
193.930995 -19.757026 11.138051 151 131 128 
96.301568 -199.533092 8.548561 47 29 26 
96.301568 -199.533092 8.548561 47 29 26 
205.819654 -6.592933 5.038296 36 23 19 
205.819654 -6.592933 5.038296 36 23 19 
100.313742 -202.993949 4.318983 170 147 146 
107.345663 -193.706555 0.726130 48 30 27 
109.629110 -192.920000 2.626016 44 26 23 
118.056096 -184.692387 2.626141 161 145 141 
118.056096 -184.692387 2.626141 161 145 141 
216.064734 -12.535368 1.302766 156 141 137 
216.064734 -12.535368 1.302766 156 141 137 
106.256292 -217.880534 2.679258 43 29 27 
115.275210 -204.626964 4.439237 54 34 31 
115.275210 -204.626964 4.439237 54 34 31 
13.539147 -385.975672 3.770600 43 30 26 
13.539147 -385.975672 3.770600 43 30 26 
224.438726 -16.492997 4.101133 37 27 23 
190.036096 -86.716002 10.624389 43 22 16 
193.914060 -89.741975 7.082600 154 135 129 
203.201947 -100.509923 6.074503 161 142 136 
82.115872 -306.986732 4.742607 43 30 26 
190.288856 -124.026244 8.036749 41 19 21 
203.242529 -109.725983 1.215804 43 25 23 
215.764850 -91.031601 2.241019 161 141 138 
215.764850 -91.031601 2.241019 161 141 138 
104.494479 -285.560117 2.779729 169 151 148 
104.494479 -285.560117 2.779729 169 151 148 
107.419287 -292.145930 1.955162 165 147 144 
192.564581 -179.498172 4.619955 41 27 20 
195.939164 -203.707675 2.745987 150 128 125 
88.522489 -385.014442 2.501117 45 32 28 
167.680094 -277.308714 0.096404 64 49 52 
166.027240 -297.370739 7.710014 45 36 40 
106.167942 -390.156491 1.821108 160 142 139 
223.887951 -294.437292 10.005534 43 29 27 
214.550134 -347.564847 3.125739 158 140 137 
206.608342 -383.120663 0.474129 42 24 21 
211.146861 -377.888390 5.013398 44 31 27 
0.702582 -10.707211 15.177850 33 20 16 
0.068567 -23.266679 14.706364 158 136 133 
0.068567 -23.266679 14.706364 158 136 133 
8.740039 -13.002974 12.630448 159 137 134 
8.740039 -13.002974 12.630448 159 137 134 
14.702241 -25.947970 11.536778 38 25 21 
14.702241 -25.947970 11.536778 38 25 21 
3.448080 -103.822606 12.782930 155 136 130 
0.617398 -111.533517 11.930635 161 141 135 
8.242025 -110.903520 10.324685 45 28 22 
9.981702 -119.260523 9.792126 154 135 129 
8.935405 -125.906552 7.744137 36 27 22 
17.532618 -106.992490 9.322520 40 24 22 
17.730738 -125.000695 9.227537 41 26 22 
1.442093 -185.984379 9.723235 39 28 25 
90.995758 -8.122380 8.537736 154 136 132 
90.995758 -8.122380 8.537736 154 136 132 
89.743589 -21.306227 9.582957 151 136 132 
89.743589 -21.306227 9.582957 151 136 132 
2.256187 -214.769819 6.756354 158 141 137 
2.256187 -214.769819 6.756354 158 141 137 
10.091132 -199.199271 8.309090 45 30 26 
10.091132 -199.199271 8.309090 45 30 26 
18.853855 -182.823544 6.918502 42 29 25 
18.853855 -182.823544 6.918502 42 29 25 
96.939434 -12.015129 8.152732 33 16 13 
96.939434 -12.015129 8.152732 33 16 13 
95.924098 -16.352396 11.267698 35 18 15 
99.609975 -11.894323 6.235433 37 22 18 
10.834427 -206.466217 7.279725 159 137 134 
18.360315 -197.215201 7.898207 44 29 25 
97.081761 -28.007350 8.841900 39 24 20 
105.343477 -23.650630 10.116072 157 137 134 
105.343477 -23.650630 10.116072 157 137 134 
16.208395 -218.377470 6.679907 39 29 24 
80.832865 -83.280590 6.641735 45 25 24 
80.832865 -83.280590 6.641735 45 25 24 
46.703482 -163.719074 15.584436 156 135 129 
46.703482 -163.719074 15.584436 156 135 129 
90.943727 -96.790829 6.641185 156 138 135 
2.494663 -294.971759 4.815710 158 143 139 
2.494663 -294.971759 4.815710 158 143 139 
104.066408 -91.272939 7.599648 37 27 22 
96.522810 -109.072292 8.469210 160 142 139 
99.592737 -112.859073 6.858474 158 143 139 
3.366300 -311.011577 8.097518 160 142 139 
108.078721 -107.488510 7.218387 44 26 23 
10.417723 -304.244639 5.456595 156 141 137 
116.684766 -95.298775 5.688545 155 137 134 
124.919208 -84.654064 5.373364 43 29 24 
109.877758 -114.548307 4.665710 156 136 133 
109.877758 -114.548307 4.665710 156 136 133 
83.887331 -187.198780 8.662068 38 29 26 
121.251669 -115.874455 5.577206 39 29 24 
121.251669 -115.874455 5.577206 39 29 24 
16.134182 -319.532999 4.258405 43 30 26 
105.433652 -151.747812 5.294577 159 138 132 
89.116114 -197.441600 5.897082 159 141 138 
97.381802 -189.525629 7.362782 159 141 138 
97.381802 -189.525629 7.362782 159 141 138 
81.191660 -221.312537 8.445252 46 28 25 
96.950144 -198.212583 7.177674 46 28 25 
96.950144 -198.212583 7.177674 46 28 25 
194.121125 -19.772414 11.154693 150 130 127 
204.019499 -10.205002 8.131467 38 25 21 
106.390686 -195.479729 2.948516 48 30 27 
123.766334 -179.172957 1.867628 43 27 25 
123.766334 -179.172957 1.867628 43 27 25 
216.966863 -11.217909 0.191015 156 141 137 
114.640402 -205.799906 5.931516 52 32 29 
114.640402 -205.799906 5.931516 52 32 29 
115.141910 -212.939908 4.520998 160 141 140 
223.757640 -18.051659 5.663693 38 27 24 
123.208376 -201.026999 3.382608 43 29 23 
190.841866 -85.273926 9.382355 44 23 17 
194.269658 -89.302840 6.762477 154 135 129 
104.635638 -260.538681 11.885697 159 137 134 
98.382831 -282.137548 0.014478 44 31 27 
203.333863 -100.300802 6.065293 161 142 136 
104.262375 -285.862837 3.330266 168 150 147 
104.262375 -285.862837 3.330266 168 150 147 
89.249789 -313.390461 5.375041 156 141 137 
89.249789 -313.390461 5.375041 156 141 137 
99.228410 -300.799038 1.048587 42 29 25 
110.131777 -284.816925 1.807441 168 153 149 
107.284574 -292.641513 2.453690 166 148 145 
144.007899 -251.283508 1.512442 162 141 135 
145.541064 -290.959174 1.506802 166 148 145 
88.373523 -384.877444 2.100243 44 31 27 
88.373523 -384.877444 2.100243 44 31 27 
166.843105 -278.226594 1.669865 73 58 61 
101.321790 -387.609109 3.236910 52 37 33 
108.500722 -383.748362 1.707400 159 144 140 
108.500722 -383.748362 1.707400 159 144 140 
105.963314 -390.458041 2.461999 160 142 139 
113.505042 -396.156138 5.575572 45 30 26 
187.664179 -269.709359 148.618928 114 98 99 
187.664179 -269.709359 148.618928 114 98 99 
189.680114 -269.702066 148.960697 24 12 14 
190.337332 -270.891251 148.666193 182 174 176 
189.300874 -274.595404 148.088430 4 2 2 
186.534291 -282.549972 148.692207 18 8 3 
193.915938 -275.520023 148.753845 14 7 3 
192.800988 -284.044972 148.608837 42 33 30 
197.328140 -310.277340 0.628081 104 101 102 
204.179257 -275.271376 147.706753 140 132 127 
203.944904 -278.400046 146.266185 124 117 114 
205.830569 -277.409991 147.962074 159 153 148 
201.342127 -284.099214 148.209353 10 12 5 
204.582014 -285.377231 146.465642 9 3 0 
224.344689 -293.628730 9.346656 43 29 27 
214.216347 -347.745074 3.834192 158 140 137 
194.176496 -390.959447 0.208807 37 27 22 
211.083439 -377.716538 5.076662 44 31 27 
1.181540 -9.065663 13.837492 33 18 14 
0.557957 -21.581963 13.232584 157 135 132 
9.765424 -0.406536 10.946608 154 135 130 
9.203047 -11.683764 11.591839 154 134 131 
9.203047 -11.683764 11.591839 154 134 131 
15.349838 -24.101704 9.985729 37 24 18 
15.349838 -24.101704 9.985729 37 24 18 
3.978300 -102.430828 11.202814 158 138 130 
3.861117 -118.102399 10.514730 39 19 16 
3.861117 -118.102399 10.514730 39 19 16 
8.880156 -109.413591 8.777496 47 30 24 
18.301745 -87.509638 8.645520 37 26 23 
10.101699 -120.595202 10.994482 156 137 131 
17.855497 -106.571008 8.993427 39 25 22 
8.867413 -128.992474 10.686048 37 27 22 
1.355139 -187.474678 10.940688 38 27 24 
81.896576 -28.337180 9.644676 33 21 14 
10.259231 -191.731316 8.658898 157 136 133 
91.105590 -9.002890 8.881774 157 139 136 
4.628028 -210.936023 9.256765 40 27 23 
10.518962 -198.491348 7.228536 48 33 29 
10.518962 -198.491348 7.228536 48 33 29 
89.957843 -21.613723 9.895631 149 134 130 
89.957843 -21.613723 9.895631 149 134 130 
10.892441 -199.744520 2.896446 170 150 147 
97.545658 -10.919670 7.296865 36 19 16 
97.545658 -10.919670 7.296865 36 19 16 
11.022896 -206.723426 7.202178 163 141 138 
99.693304 -13.205853 7.049704 34 24 19 
18.741884 -196.947827 7.583608 40 30 25 
97.342897 -28.674703 9.534880 39 29 24 
108.280848 -13.509640 8.901964 39 21 18 
16.378603 -219.040706 7.135263 39 29 24 
16.378603 -219.040706 7.135263 39 29 24 
105.844144 -23.544435 9.985060 157 137 134 
105.844144 -23.544435 9.985060 157 137 134 
83.428222 -87.314462 6.999893 44 30 26 
103.381725 -58.835841 7.988487 156 135 129 
103.381725 -58.835841 7.988487 156 135 129 
91.098387 -97.812290 7.181004 155 137 134 
85.816925 -120.399389 8.230408 37 27 22 
2.910582 -295.046380 4.666721 158 143 139 
98.915075 -99.461967 4.931466 40 22 19 
98.915075 -99.461967 4.931466 40 22 19 
104.421955 -91.594315 7.375767 39 29 24 
3.208809 -313.272892 11.016590 156 144 137 
99.514474 -114.568832 8.033460 156 141 137 
99.514474 -114.568832 8.033460 156 141 137 
10.426771 -305.780507 7.195087 161 143 140 
10.426771 -305.780507 7.195087 161 143 140 
107.947476 -109.197715 8.434770 41 23 20 
117.238562 -94.851333 5.008139 156 138 135 
9.750475 -316.522980 7.337867 159 141 138 
9.750475 -316.522980 7.337867 159 141 138 
109.813817 -115.902424 5.604892 160 141 138 
109.813817 -115.902424 5.604892 160 141 138 
124.256117 -87.220380 7.358876 37 26 22 
83.800214 -188.512371 9.465924 40 29 26 
83.800214 -188.512371 9.465924 40 29 26 
106.256479 -151.659220 4.536838 157 138 132 
96.386320 -192.812451 10.466414 159 141 138 
191.212485 -11.592169 11.144976 34 26 21 
96.897715 -199.267663 8.003188 50 31 30 
0.523210 -388.174056 5.723023 160 142 139 
0.523210 -388.174056 5.723023 160 142 139 
100.391712 -203.400405 4.491447 165 142 141 
100.391712 -203.400405 4.491447 165 142 141 
106.978716 -194.759417 1.680914 48 30 27 
112.519706 -201.298644 11.675750 156 141 137 
211.994859 -14.946449 5.949148 157 139 136 
13.599739 -386.786297 4.332512 43 30 26 
224.385320 -17.974865 5.038979 37 26 23 
191.847218 -83.679633 7.816518 42 25 19 
194.668949 -88.300435 6.104854 144 132 125 
194.167615 -89.556922 7.159450 150 138 131 
194.167615 -89.556922 7.159450 150 138 131 
123.600200 -218.861114 3.867988 47 28 27 
108.187972 -251.528977 0.528264 159 137 134 
82.271759 -307.481969 4.969196 44 31 27 
89.669214 -298.324743 5.781986 158 143 139 
203.420156 -100.975834 6.085303 161 142 136 
200.474847 -113.383850 1.004563 162 145 146 
203.525244 -109.811939 1.133936 31 13 12 
203.525244 -109.811939 1.133936 31 13 12 
89.310768 -314.173066 6.011451 158 143 139 
89.310768 -314.173066 6.011451 158 143 139 
107.876261 -281.656979 3.721269 47 29 26 
98.861119 -302.352143 2.800937 43 30 26 
216.119280 -107.381697 1.464002 26 11 5 
216.119280 -107.381697 1.464002 26 11 5 
319.332579 -1.769129 7.870145 33 26 21 
145.813630 -291.205056 1.274336 165 147 144 
88.822694 -384.714095 1.519077 44 31 27 
97.833365 -394.465249 3.940795 159 141 138 
97.833365 -394.465249 3.940795 159 141 138 
108.916419 -383.514470 0.900972 161 146 142 
106.388561 -390.213702 1.897037 161 143 140 
121.266781 -383.627999 2.888779 44 31 27 
189.453134 -266.791869 148.703605 1 1 1 
113.988623 -395.827449 4.424051 45 30 26 
113.988623 -395.827449 4.424051 45 30 26 
188.097297 -270.083279 148.604711 108 98 98 
188.097297 -270.083279 148.604711 108 98 98 
190.362322 -269.885911 148.961027 3 2 2 
190.686430 -271.377224 148.881952 173 169 170 
193.711880 -268.362164 147.925884 171 160 161 
181.869040 -300.030097 8.960430 65 54 63 
194.622009 -269.449438 147.498586 149 138 138 
181.243697 -303.619105 3.133820 40 36 39 
195.398929 -272.826256 148.139715 165 158 155 
194.592767 -275.553608 148.393851 30 23 19 
201.015642 -278.385113 148.880759 64 54 57 
204.148619 -276.190276 148.300334 137 128 126 
205.756941 -278.514917 147.172454 19 12 9 
193.147607 -317.453321 0.129944 23 17 18 
211.720845 -275.147064 145.801237 21 9 6 
211.782337 -276.802881 147.720283 118 103 99 
225.664144 -292.097088 7.450941 42 29 25 
245.534169 -285.721492 34.154068 162 143 137 
214.255469 -348.485775 4.409589 158 140 137 
214.255469 -348.485775 4.409589 158 140 137 
210.774163 -378.377070 5.709828 44 31 27 
312.266543 -304.569758 2.222644 158 146 139 
4.256251 -13.862926 4.383574 154 135 134 
4.256251 -13.862926 4.383574 154 135 134 
12.859851 -4.576664 4.265020 161 141 138 
18.530201 -18.734041 3.857974 33 25 20 
3.737661 -107.663490 7.302261 159 141 138 
6.556861 -101.091637 8.673085 162 141 135 
12.537253 -92.705074 3.327474 163 141 138 
20.330194 -103.537776 4.983291 38 26 19 
20.537655 -121.848934 5.373350 38 25 21 
20.537655 -121.848934 5.373350 38 25 21 
12.155143 -190.366162 6.632082 165 143 140 
4.342674 -212.497552 3.541492 169 150 144 
4.342674 -212.497552 3.541492 169 150 144 
11.987834 -199.935520 7.856599 46 28 25 
11.987834 -199.935520 7.856599 46 28 25 
84.101948 -21.198318 3.369377 38 26 21 
91.677101 -17.178390 5.332906 158 143 139 
101.086095 -8.592833 2.289387 43 25 22 
110.115876 -8.004895 3.895867 44 24 21 
108.436872 -13.986982 1.667967 156 141 137 
108.436872 -13.986982 1.667967 156 141 137 
84.631376 -83.052855 2.451611 39 28 25 
7.095818 -301.471095 7.874121 44 29 25 
4.680267 -317.419181 15.825426 164 149 145 
92.338417 -93.313534 3.147249 160 139 138 
87.240707 -115.973768 4.143550 39 29 24 
105.339670 -87.508776 3.369759 37 27 22 
100.841379 -110.213723 3.947089 159 141 138 
109.520077 -102.634710 2.839974 40 25 21 
1.113424 -390.794472 9.536280 164 146 143 
1.113424 -390.794472 9.536280 164 146 143 
117.504605 -92.338512 2.672039 159 142 139 
110.621842 -112.289290 2.647733 158 140 137 
84.036890 -187.900542 8.838799 45 30 26 
125.521114 -82.172793 2.734526 39 28 25 
122.395518 -112.288794 2.561325 38 28 23 
89.422761 -196.604618 4.812823 164 144 141 
13.643037 -389.390094 8.390588 44 31 27 
81.901718 -220.327790 7.648903 46 28 25 
97.645387 -195.853135 4.598453 48 30 27 
97.645387 -195.853135 4.598453 48 30 27 
100.809896 -202.566762 4.834417 166 148 145 
105.627280 -196.788602 4.205205 42 29 25 
114.618176 -193.916516 5.564426 168 147 141 
123.050362 -180.349287 2.980696 41 28 24 
194.859672 -14.236671 7.119576 158 141 135 
82.459830 -289.072997 7.918399 42 31 26 
82.459830 -289.072997 7.918399 42 31 26 
205.132128 -4.034810 3.903068 42 36 26 
205.132128 -4.034810 3.903068 42 36 26 
81.464524 -309.003270 7.705743 44 28 25 
212.845604 -7.024484 1.133055 159 145 138 
123.350913 -217.084651 2.707048 45 30 26 
123.350913 -217.084651 2.707048 45 30 26 
89.788146 -297.075082 4.902208 162 149 145 
97.077523 -284.551059 3.161136 44 31 27 
88.853518 -314.399464 6.680764 164 148 146 
98.255695 -302.459788 3.693964 46 31 27 
120.692873 -287.601961 1.237458 45 32 28 
115.910044 -311.827504 2.460322 165 150 146 
86.759374 -388.679959 6.683899 45 32 28 
86.759374 -388.679959 6.683899 45 32 28 
99.737584 -389.654168 7.144280 50 35 31 
106.756586 -386.484498 5.589112 169 151 148 
105.035740 -391.883994 5.128619 168 149 148 
165.200058 -279.867080 3.659564 70 54 52 
112.173745 -398.506535 8.911435 41 26 22 
190.642705 -274.456776 152.024555 153 148 142 
190.346475 -280.812263 153.435745 10 4 1 
190.774379 -283.602439 153.934105 112 109 103 
198.435072 -286.345084 153.474233 150 138 138 
201.001944 -284.312109 152.691215 21 14 11 
190.593010 -319.026851 3.561181 17 17 15 
190.593010 -319.026851 3.561181 17 17 15 
196.119886 -309.920330 0.838712 112 109 110 
202.671998 -287.400242 152.969970 15 8 5 
203.246809 -303.630057 2.973735 63 54 58 
213.256299 -300.154064 1.066416 28 18 18 
213.256299 -300.154064 1.066416 28 18 18 
213.256299 -300.154064 1.066416 28 18 18 
225.362211 -289.122363 5.881233 43 29 27 
223.260706 -300.152718 0.711816 165 152 148 
223.260706 -300.152718 0.711816 165 152 148 
190.963701 -377.474392 4.541153 44 27 28 
213.358152 -346.775901 2.643586 163 148 144 
198.354333 -391.650179 4.003876 46 28 25 
206.865487 -382.339243 11.684992 47 31 29 
315.679160 -279.398517 0.795049 40 27 23 
306.634656 -295.549527 1.764656 167 147 144 
292.473947 -371.497220 0.528349 44 26 23 
109.466204 -4.553304 0.706629 46 28 25 
85.423315 -180.545715 1.552479 44 31 27 
85.423315 -180.545715 1.552479 44 31 27 
106.153982 -147.661157 1.429053 169 147 144 
106.153982 -147.661157 1.429053 169 147 144 
98.167512 -184.522492 2.471583 167 148 144 
106.176000 -192.387969 0.110068 42 29 25 
189.822459 -4.778920 7.137955 41 27 20 
115.211473 -188.925876 1.007138 168 147 141 
194.820229 -7.590956 2.759262 163 146 140 
194.820229 -7.590956 2.759262 163 146 140 
202.407182 -4.675737 5.199215 39 33 23 
202.407182 -4.675737 5.199215 39 33 23 
115.822953 -207.001660 1.706398 176 161 157 
210.506731 -7.891970 2.744829 167 150 144 
82.690624 -303.953079 2.456228 45 30 26 
103.061209 -263.727720 14.959279 167 147 144 
190.753722 -76.521201 3.241687 42 24 20 
190.753722 -76.521201 3.241687 42 24 20 
223.196177 -8.782414 0.986585 42 30 23 
89.988811 -310.022238 2.163576 172 153 152 
89.988811 -310.022238 2.163576 172 153 152 
116.154828 -309.448256 0.357455 167 152 148 
88.273377 -383.680439 0.395776 47 34 30 
123.104091 -315.961855 0.811420 44 31 27 
143.831539 -290.603132 2.212094 174 156 153 
97.753591 -392.248714 1.987135 161 146 142 
97.753591 -392.248714 1.987135 161 146 142 
107.950597 -382.186160 0.272667 171 153 150 
106.093819 -387.749781 0.216962 167 152 148 
119.721676 -383.762991 4.034702 49 35 33 
189.247887 -319.503597 4.534715 19 16 17 
189.247887 -319.503597 4.534715 19 16 17 
195.420190 -308.972134 0.099452 114 110 112 
211.081775 -302.498018 3.954210 33 21 21 
221.317878 -301.538182 2.820662 165 152 148 
221.317878 -301.538182 2.820662 165 152 148 
227.436982 -312.368472 2.295625 44 30 28 
227.436982 -312.368472 2.295625 44 30 28 
242.514195 -286.572984 40.256046 169 149 146 
212.233011 -347.516279 3.827874 165 149 147 
298.910808 -200.650339 2.997611 170 146 148 
228.970271 -325.892762 12.138095 37 22 18 
228.101836 -327.803797 14.350206 37 22 18 
189.828204 -395.444981 6.808250 40 27 23 
310.281907 -202.183900 1.831710 32 18 14 
310.281907 -202.183900 1.831710 32 18 14 
197.744429 -391.655233 3.805295 49 31 28 
197.744429 -391.655233 3.805295 49 31 28 
201.404988 -387.790175 8.429104 43 28 24 
206.095613 -382.524012 11.400167 50 34 32 
314.395790 -204.858629 1.507299 168 148 145 
325.628049 -207.884792 1.196506 167 146 145 
325.628049 -207.884792 1.196506 167 146 145 
212.577703 -393.101570 7.429743 166 153 149 
212.577703 -393.101570 7.429743 166 153 149 
301.870956 -282.358536 1.886326 168 150 147 
311.489679 -284.952787 7.597084 42 31 26 
333.889269 -279.995100 2.968747 44 29 25 
315.357103 -311.210948 4.192515 170 155 151 
315.357103 -311.210948 4.192515 170 155 151 
331.643199 -317.451731 3.116371 40 22 19 
331.643199 -317.451731 3.116371 40 22 19 
291.765569 -380.048422 6.386628 41 31 26 
291.765569 -380.048422 6.386628 41 31 26 
335.434266 -322.422456 7.499362 171 156 152 
308.399418 -380.037786 5.750456 41 30 27 
315.795154 -387.076731 4.941274 165 152 148 
308.580534 -399.118761 4.714283 41 29 25 
324.186232 -386.533262 3.547365 163 150 146 
318.392335 -394.862257 4.411390 45 30 26 
333.308314 -377.160120 1.178094 42 33 25 
333.308314 -377.160120 1.178094 42 33 25 
329.313484 -398.219927 4.263885 41 27 25 
85.925835 -178.878628 0.066892 44 31 27 
83.036967 -302.981306 1.032353 44 29 25 
190.372352 -5.106950 1.026271 33 15 12 
102.527270 -264.958238 16.261700 167 147 144 
90.172902 -309.250759 1.146510 170 151 150 
191.216925 -74.964287 2.025047 41 24 20 
186.651588 -110.294960 0.625393 155 134 133 
88.034392 -384.156015 0.948128 46 33 29 
88.034392 -384.156015 0.948128 46 33 29 
107.836374 -382.151056 0.171347 172 154 151 
160.222348 -277.371417 0.814633 174 156 153 
212.598128 -299.027592 0.124073 33 21 21 
212.598128 -299.027592 0.124073 33 21 21 
221.332997 -285.080281 16.648147 183 161 158 
214.012992 -308.728568 0.212068 161 150 147 
224.941871 -287.273780 4.471729 44 30 28 
212.681535 -346.282957 2.344324 165 149 147 
190.620753 -393.851226 4.324746 38 25 21 
197.052810 -392.488689 5.015342 49 31 28 
197.052810 -392.488689 5.015342 49 31 28 
198.859318 -389.955202 4.758275 41 23 20 
198.859318 -389.955202 4.758275 41 23 20 
300.138173 -198.481434 0.998432 168 144 146 
211.924815 -393.800085 8.447898 166 153 149 
211.924815 -393.800085 8.447898 166 153 149 
302.220776 -281.753885 1.264052 168 150 147 
304.417702 -298.321428 5.140071 170 150 147 
312.335499 -283.700601 6.192491 41 31 26 
307.708328 -307.137171 9.203569 164 149 145 
319.065625 -298.921422 0.246786 38 25 21 
334.218707 -279.173406 2.317007 44 29 25 
333.372144 -315.078447 0.551026 40 24 20 
333.372144 -315.078447 0.551026 40 24 20 
300.205636 -385.530946 3.505034 159 146 142 
308.824280 -379.485086 4.856187 40 30 25 
318.145047 -384.355331 0.934659 165 152 148 
318.145047 -384.355331 0.934659 165 152 148 
326.156714 -384.372892 0.362887 163 150 146 
326.156714 -384.372892 0.362887 163 150 146 
331.812261 -395.541706 0.227387 41 28 24 
2.322982 -395.119676 4.420183 42 30 27 
3.024991 -389.527420 13.115213 164 145 144 
15.667904 -389.840164 15.901407 47 30 31 
15.667904 -389.840164 15.901407 47 30 31 
7.464784 -309.883505 12.345462 166 148 145 
5.854663 -217.105626 15.992426 171 149 146 
6.055833 -184.591451 13.739562 44 28 26 
14.257430 -196.851829 9.534456 42 26 24 
14.257430 -196.851829 9.534456 42 26 24 
14.304789 -188.636064 9.494306 161 143 141 
19.244195 -220.055518 13.366410 50 33 27 
19.244195 -220.055518 13.366410 50 33 27 
4.917644 -87.653217 6.417862 169 149 146 
4.917644 -87.653217 6.417862 169 149 146 
9.728727 -93.633636 6.571770 171 148 141 
50.603233 -398.222119 5.609705 161 143 140 
6.258143 -13.031657 4.505618 167 146 140 
6.258143 -13.031657 4.505618 167 146 140 
22.223013 -124.596641 12.880294 46 32 30 
22.223013 -124.596641 12.880294 46 32 30 
21.653666 -107.841599 11.806325 44 29 25 
22.044311 -85.469906 10.516075 46 28 25 
22.044311 -85.469906 10.516075 46 28 25 
53.269581 -161.116052 25.831864 170 146 141 
55.347094 -100.776941 5.943808 174 150 145 
88.605535 -385.995334 5.129748 46 30 28 
98.344879 -395.391604 8.197072 155 140 136 
98.344879 -395.391604 8.197072 155 140 136 
84.629562 -214.530820 1.523938 54 37 31 
105.502789 -394.143874 9.291706 168 148 145 
87.188096 -180.073303 2.378811 53 35 32 
87.188096 -180.073303 2.378811 53 35 32 
99.758062 -303.821067 10.098908 50 32 29 
100.186869 -292.701835 3.909224 48 32 28 
91.273780 -194.721205 5.786150 175 158 152 
95.805281 -205.334321 4.676393 178 156 151 
89.465245 -112.518179 1.836867 47 32 28 
89.465245 -112.518179 1.836867 47 32 28 
120.484014 -385.595890 10.156026 47 31 29 
94.220379 -89.042779 0.061980 176 157 151 
115.925043 -314.358801 10.517384 169 151 148 
107.575691 -198.456937 1.296358 54 37 31 
94.119018 -10.875077 0.194341 169 149 146 
94.119018 -10.875077 0.194341 169 149 146 
123.129262 -323.432595 16.025599 55 38 35 
123.129262 -323.432595 16.025599 55 38 35 
121.376676 -286.120781 3.909746 52 37 33 
116.693071 -211.281234 5.305599 176 155 149 
106.634625 -83.683341 0.411452 48 30 27 
116.946985 -194.104999 5.081399 180 161 155 
101.925828 -20.122343 2.481733 47 32 28 
123.919618 -180.504477 5.722373 55 37 31 
111.031331 -9.578697 8.227755 49 28 27 
118.882271 -90.496266 1.577506 175 156 150 
198.501050 -382.060325 2.064935 170 155 151 
210.529872 -376.199936 1.249050 53 38 34 
213.141678 -392.935642 10.506063 175 160 156 
213.141678 -392.935642 10.506063 175 160 156 
217.108585 -391.543449 0.448322 172 157 153 
224.740185 -383.650370 10.495374 52 37 33 
224.740185 -383.650370 10.495374 52 37 33 
204.293453 -9.528704 10.938098 54 35 29 
301.220095 -102.752793 0.098226 54 37 34 
320.414760 -391.458224 2.067503 54 36 33 
322.901146 -387.260463 11.693304 181 163 160 
333.008693 -377.242915 3.804819 52 37 33 
332.495370 -198.788585 0.037599 58 38 35 
332.530984 -178.260807 2.031032 58 38 35 
2.918459 -396.370171 9.351925 42 31 28 
3.488310 -389.220347 13.676960 164 145 144 
2.616658 -299.792974 14.936104 169 148 147 
7.679221 -308.825148 10.780913 166 148 145 
15.951447 -388.262639 13.119204 47 30 31 
15.951447 -388.262639 13.119204 47 30 31 
6.277600 -216.004132 13.804294 170 149 146 
6.277600 -216.004132 13.804294 170 149 146 
15.270514 -290.416973 11.999175 43 29 27 
15.270514 -290.416973 11.999175 43 29 27 
19.262037 -322.443004 15.147852 43 27 25 
5.692888 -181.117443 7.186833 44 28 26 
7.132556 -193.738673 4.834568 46 30 28 
9.783290 -201.276386 12.330356 41 25 23 
9.783290 -201.276386 12.330356 41 25 23 
9.783290 -201.276386 12.330356 41 25 23 
6.017259 -119.380410 5.725084 52 32 29 
14.631357 -205.047029 9.542216 164 145 144 
6.136216 -112.709787 4.753017 46 26 23 
14.272107 -195.067303 6.194020 41 25 23 
14.272107 -195.067303 6.194020 41 25 23 
5.897842 -105.188496 7.640077 170 151 145 
14.373568 -188.051824 8.258865 162 144 141 
19.357525 -218.807338 10.947701 50 33 27 
13.108968 -101.262678 0.234955 51 31 28 
22.045864 -198.505387 11.264612 45 32 28 
22.213292 -182.826547 10.933531 48 31 25 
22.206817 -122.951897 10.031983 46 32 30 
22.206817 -122.951897 10.031983 46 32 30 
21.580443 -106.772274 9.688008 44 29 25 
52.686905 -302.097570 10.074524 164 143 142 
88.453928 -386.719663 7.681411 46 30 28 
83.653685 -302.466375 2.947788 51 33 30 
90.993207 -309.113500 0.287924 170 152 149 
84.324604 -216.060555 4.228119 56 39 33 
98.276196 -395.267930 8.374255 154 139 135 
98.276196 -395.267930 8.374255 154 139 135 
91.220604 -295.457317 6.178024 164 149 145 
86.819487 -181.211658 4.077323 53 35 32 
91.056504 -195.058012 6.106798 175 158 152 
105.373309 -393.895347 10.929086 168 148 145 
99.986498 -293.067418 4.784559 47 32 28 
89.187531 -112.418989 1.381660 47 32 28 
114.504752 -394.508985 4.606914 43 28 24 
93.800179 -89.954351 1.593941 177 158 152 
101.310506 -202.839319 6.968857 179 158 152 
