ply
format ascii 1.0
element vertex 1118
property float x
property float y
property float z
property uchar red
property uchar green
property uchar blue
end_header
202.794474 -1.891495 6.844154 46 31 28 
198.064860 -11.644132 2.635606 150 132 129 
198.064860 -11.644132 2.635606 150 132 129 
243.671538 -263.947635 40.224135 48 33 52 
192.756216 -2.430246 6.580323 42 28 26 
212.216380 -110.292307 2.105976 155 144 140 
243.304101 -294.912816 55.637380 34 19 66 
192.201720 -18.924185 8.701990 43 29 27 
192.201720 -18.924185 8.701990 43 29 27 
241.089721 -289.911838 65.466720 33 19 67 
189.080149 -10.116134 10.653565 34 19 15 
213.285761 -141.738805 14.405465 168 148 145 
240.150592 -305.949753 52.944711 21 12 76 
203.560996 -114.885574 6.748869 48 37 34 
238.355300 -319.865925 54.083954 103 100 106 
203.736339 -127.909975 0.843100 165 147 144 
192.626089 -119.888414 0.669265 40 27 23 
192.626089 -119.888414 0.669265 40 27 23 
227.312733 -328.490456 62.241966 51 23 37 
200.211513 -166.404879 5.817339 165 146 145 
209.987522 -327.896173 53.853150 56 26 38 
214.234085 -395.304147 0.975943 161 151 146 
156.284285 -88.784198 29.655140 160 144 142 
156.284285 -88.784198 29.655140 160 144 142 
178.735690 -220.555118 19.194592 165 146 145 
177.506485 -275.568290 78.833091 90 64 132 
171.667111 -280.406083 70.516329 73 63 147 
168.660175 -264.811298 73.437110 72 80 150 
168.660175 -264.811298 73.437110 72 80 150 
164.607745 -259.711936 69.124451 10 22 87 
163.397892 -266.811794 76.718902 58 77 147 
163.397892 -266.811794 76.718902 58 77 147 
169.523749 -308.864999 65.835891 48 26 109 
121.468967 -15.263599 4.660740 43 34 30 
121.468967 -15.263599 4.660740 43 34 30 
158.219113 -257.475620 73.443234 56 66 131 
116.869530 -1.778194 8.347525 157 143 141 
157.742124 -261.102611 79.689862 64 82 150 
131.904652 -126.170214 327.918499 74 67 148 
105.020396 -1.662756 2.206950 50 35 33 
105.020396 -1.662756 2.206950 50 35 33 
137.707327 -217.134144 22.649521 165 144 143 
103.208797 -37.791529 44.346712 158 140 137 
122.479713 -178.540154 2.722693 51 35 33 
122.479713 -178.540154 2.722693 51 35 33 
109.782750 -102.102747 0.872015 49 39 34 
122.822287 -215.556383 6.491618 52 36 34 
122.822287 -215.556383 6.491618 52 36 34 
91.621433 -10.855638 0.933719 158 144 142 
91.621433 -10.855638 0.933719 158 144 142 
114.577708 -189.265323 1.254200 165 146 145 
102.020704 -105.705381 8.817393 164 148 146 
102.020704 -105.705381 8.817393 164 148 146 
115.514923 -228.049659 12.182958 165 147 144 
84.555217 -18.372291 1.052817 42 32 29 
84.555217 -18.372291 1.052817 42 32 29 
100.636488 -127.599909 55.861837 162 144 141 
103.894472 -186.958045 20.819468 50 34 32 
103.894472 -186.958045 20.819468 50 34 32 
103.257375 -184.008119 22.047047 52 36 34 
103.257375 -184.008119 22.047047 52 36 34 
103.257375 -184.008119 22.047047 52 36 34 
103.257375 -184.008119 22.047047 52 36 34 
99.442309 -186.152201 0.268089 163 144 142 
99.442309 -186.152201 0.268089 163 144 142 
100.455530 -201.750860 2.416582 165 149 147 
96.106440 -268.183535 31.017809 27 14 26 
95.175135 -265.896551 23.366897 79 73 109 
92.533652 -271.809947 0.984857 20 16 95 
93.922476 -279.897527 64.090105 59 28 43 
100.714589 -383.887957 7.040244 43 29 27 
100.714589 -383.887957 7.040244 43 29 27 
95.975496 -323.990553 53.846616 56 26 38 
85.656936 -265.884553 14.594952 100 102 115 
99.920390 -398.327345 7.643240 49 35 33 
99.920390 -398.327345 7.643240 49 35 33 
82.993443 -283.955990 0.468633 22 22 29 
84.775037 -313.019820 21.989331 112 103 128 
82.264140 -314.231671 7.633752 26 17 27 
77.701968 -326.287110 42.145090 164 150 148 
53.046446 -339.992436 6.484883 164 151 147 
16.013187 -15.102401 1.617416 43 34 31 
18.517990 -101.302714 0.714111 46 36 31 
2.731081 -11.299904 0.955954 157 143 141 
3.750196 -115.704590 6.886794 48 38 33 
3.898275 -210.411172 0.636290 163 149 147 
3.898275 -210.411172 0.636290 163 149 147 
314.894740 -3.914469 5.787784 160 142 139 
193.383596 -3.447734 4.101253 43 29 27 
191.705963 -227.661282 241.452683 165 150 146 
136.443496 -386.052955 1.160733 166 151 147 
136.443496 -386.052955 1.160733 166 151 147 
86.287460 -269.531590 7.299765 104 103 116 
82.932822 -316.259892 4.267487 28 17 26 
18.954444 -117.409128 0.407797 47 37 32 
2.128240 -6.672511 1.244675 160 146 144 
2.128240 -6.672511 1.244675 160 146 144 
1.767790 -9.465071 0.515327 157 143 141 
1.767790 -9.465071 0.515327 157 143 141 
19.832834 -176.992038 1.493733 46 32 30 
19.924924 -192.881344 1.274672 45 31 29 
3.050669 -108.786607 0.512204 45 35 35 
3.050669 -108.786607 0.512204 45 35 35 
3.905389 -177.330062 0.658861 49 35 33 
3.879937 -207.504600 5.958781 163 149 147 
3.879937 -207.504600 5.958781 163 149 147 
325.493210 -2.961472 2.473813 161 142 136 
313.252706 -2.368392 11.641180 159 142 136 
298.321523 -2.442768 7.409709 156 143 139 
308.593698 -390.271354 8.547859 47 28 27 
308.593698 -390.271354 8.547859 47 28 27 
308.593698 -390.271354 8.547859 47 28 27 
263.653424 -290.048374 23.498415 143 121 118 
242.376253 -311.374429 42.202235 29 16 70 
231.877405 -340.072245 42.680213 52 27 38 
199.736861 -184.942205 2.389968 168 149 148 
215.398753 -341.202024 30.371784 57 25 37 
170.609413 -297.849019 11.694930 38 52 118 
170.609413 -297.849019 11.694930 38 52 118 
105.236909 -1.390969 4.689581 52 37 33 
141.310343 -349.436141 32.896190 55 23 40 
103.170649 -191.448322 2.752149 53 37 35 
103.170649 -191.448322 2.752149 53 37 35 
97.317302 -267.690664 32.136718 28 15 26 
93.214879 -264.217675 16.800292 20 15 98 
92.115301 -281.998106 29.107208 96 108 120 
94.821161 -314.020059 36.728063 59 26 48 
84.154634 -281.506160 5.616759 27 23 26 
87.994833 -385.422933 7.048819 46 36 31 
11.272858 -99.811209 4.882590 51 36 32 
12.562741 -191.826566 3.133983 48 34 32 
12.562741 -191.826566 3.133983 48 34 32 
4.086756 -175.661872 5.837002 48 37 34 
11.066996 -399.020424 6.947501 159 151 146 
4.016920 -382.763484 1.707018 160 149 146 
3.405980 -391.050192 2.211847 40 28 28 
1.073949 -395.362648 0.417679 109 97 97 
1.073949 -395.362648 0.417679 109 97 97 
1.073949 -395.362648 0.417679 109 97 97 
323.538515 -0.700430 8.548803 161 143 137 
313.720465 -1.041215 11.704604 159 142 136 
298.913739 -1.766965 5.611043 156 143 139 
292.981938 -77.881270 1.955670 51 40 31 
293.263205 -282.705234 6.547592 43 26 27 
293.263205 -282.705234 6.547592 43 26 27 
203.665569 -3.578004 1.454526 50 32 29 
203.665569 -3.578004 1.454526 50 32 29 
198.902383 -12.540817 0.575571 154 136 133 
198.902383 -12.540817 0.575571 154 136 133 
193.505785 -2.955321 4.570912 42 29 25 
193.275139 -20.089630 3.598767 41 27 20 
193.717914 -78.044160 3.321511 47 29 26 
193.717914 -78.044160 3.321511 47 29 26 
193.717914 -78.044160 3.321511 47 29 26 
240.582285 -306.875829 49.710832 27 15 72 
239.135662 -321.956281 52.507890 111 100 104 
193.168259 -177.049419 1.785844 43 24 23 
193.168259 -177.049419 1.785844 43 24 23 
213.374839 -334.885317 39.812675 57 25 37 
160.178252 -97.888411 0.000472 166 148 144 
160.178252 -97.888411 0.000472 166 148 144 
101.977868 -3.060500 1.806068 49 35 33 
149.107891 -299.956348 58.933416 109 90 155 
127.015875 -257.718209 48.133859 76 53 64 
93.709095 -100.680467 1.744866 50 38 34 
139.171185 -339.438514 48.781486 54 22 43 
103.076811 -191.082188 3.642931 53 37 35 
103.076811 -191.082188 3.642931 53 37 35 
91.668403 -279.105758 34.115551 96 108 120 
86.663613 -269.319742 6.204709 106 105 117 
98.705131 -337.407390 34.320627 60 28 40 
90.101601 -291.704651 36.409026 118 118 132 
52.770122 -98.343356 1.213372 165 147 144 
83.634272 -301.255532 1.942126 25 21 27 
83.723792 -317.243287 0.512857 27 22 28 
87.665910 -385.340490 6.728852 48 35 31 
78.872990 -329.325868 39.396470 165 152 148 
18.466571 -100.554018 2.880648 51 36 32 
19.359507 -117.465937 0.790755 53 34 33 
11.285837 -100.514671 3.525417 51 36 32 
12.270063 -110.081332 1.855288 163 152 149 
12.270063 -110.081332 1.855288 163 152 149 
3.155467 -101.015992 1.247321 163 150 146 
17.745857 -213.625604 2.662616 48 37 34 
17.745857 -213.625604 2.662616 48 37 34 
12.699132 -190.210976 7.292217 48 34 32 
4.323795 -174.916850 7.928949 46 37 34 
6.301755 -193.519790 3.266123 51 37 35 
14.928606 -284.849477 3.244725 45 32 28 
14.928606 -284.849477 3.244725 45 32 28 
7.099388 -303.694485 1.918450 168 154 152 
16.538065 -382.618197 1.532031 43 32 29 
16.538065 -382.618197 1.532031 43 32 29 
1.860529 -293.680303 1.254255 170 156 154 
1.860529 -293.680303 1.254255 170 156 154 
3.271780 -390.639848 2.541111 40 28 28 
1.010654 -393.728167 2.394976 107 95 95 
136.975345 -384.397027 2.779790 167 152 148 
136.975345 -384.397027 2.779790 167 152 148 
96.811506 -264.008654 39.106509 28 17 26 
84.359055 -283.338886 2.057571 26 22 25 
18.174131 -101.030544 0.161231 51 36 32 
17.551647 -214.284482 0.703972 48 37 34 
17.551647 -214.284482 0.703972 48 37 34 
3.762519 -177.350370 1.301459 47 37 34 
6.817122 -304.102982 1.005921 168 154 152 
323.866354 -0.069382 9.333063 161 142 136 
323.866354 -0.069382 9.333063 161 142 136 
329.024088 -14.002418 7.088677 46 36 31 
329.024088 -14.002418 7.088677 46 36 31 
324.997691 -8.412206 3.302161 48 35 31 
317.388143 -3.567909 2.021039 160 143 137 
317.388143 -3.567909 2.021039 160 143 137 
300.831836 -2.005585 2.220811 157 143 139 
259.821738 -40.742455 11.319983 163 144 138 
210.920513 -10.615296 3.147205 162 144 138 
204.149381 -3.624636 0.958241 48 30 27 
204.149381 -3.624636 0.958241 48 30 27 
316.266619 -295.462158 1.014857 158 145 141 
194.539119 -3.415048 3.599224 44 29 25 
309.884612 -307.823422 6.565475 49 31 28 
194.358247 -20.845055 1.455357 39 26 22 
194.358247 -20.845055 1.455357 39 26 22 
192.957248 -77.452534 6.515050 50 28 25 
192.957248 -77.452534 6.515050 50 28 25 
216.048691 -146.836279 1.849873 169 151 148 
263.350704 -289.891064 26.064788 144 122 119 
202.960936 -127.509150 0.097629 168 150 147 
239.841750 -267.132620 39.575190 29 12 21 
238.796747 -270.353975 50.699066 103 85 95 
238.796747 -270.353975 50.699066 103 85 95 
212.536732 -190.188428 7.187958 54 38 36 
245.136983 -298.150392 49.780365 32 19 67 
241.376795 -292.948596 51.964263 105 94 118 
204.938352 -227.505603 11.167451 169 149 146 
230.882374 -337.688677 49.273182 60 23 41 
107.801933 -2.378367 2.278170 50 36 34 
211.553875 -331.988359 45.537026 58 27 37 
119.184876 -78.294748 11.517772 40 27 23 
181.398508 -287.334569 58.971791 106 76 144 
173.095808 -276.471230 53.201149 68 80 153 
170.044596 -273.029009 44.745515 3 20 84 
170.044596 -273.029009 44.745515 3 20 84 
167.498533 -274.146577 52.682797 63 72 139 
169.488025 -283.982364 46.600289 65 89 160 
163.565397 -272.452913 46.475659 56 66 135 
173.971429 -309.639189 50.268161 83 71 153 
163.542802 -278.881743 47.791182 69 77 154 
166.817095 -288.424528 28.454232 59 69 147 
166.817095 -288.424528 28.454232 59 69 147 
175.894053 -323.346888 51.538212 117 95 160 
165.730073 -296.936707 55.016236 8 39 114 
167.545815 -306.223030 45.217242 65 88 167 
167.545815 -306.223030 45.217242 65 88 167 
160.935589 -291.173884 62.925261 55 83 156 
152.244715 -266.497939 52.663067 69 54 112 
171.611187 -328.398894 49.392411 49 30 116 
169.400032 -324.487793 47.929416 74 83 164 
157.672566 -294.658588 61.362886 85 77 161 
164.826966 -320.522571 51.319706 22 41 113 
164.826966 -320.522571 51.319706 22 41 113 
163.256997 -321.333933 56.950223 52 82 152 
93.087623 -99.182918 6.647282 51 41 36 
93.159454 -100.721154 3.405754 50 40 35 
93.159454 -100.721154 3.405754 50 40 35 
123.017810 -203.057954 0.389438 51 37 35 
167.687609 -346.344117 36.188243 18 23 99 
159.204882 -322.729110 48.827858 70 84 160 
164.066520 -343.026569 40.774411 19 28 102 
149.810573 -301.775788 56.547229 100 80 143 
154.847342 -345.048466 48.914568 52 36 100 
135.596299 -383.386477 3.659495 168 153 149 
135.596299 -383.386477 3.659495 168 153 149 
97.962410 -268.093223 29.978587 30 18 30 
96.639945 -275.557393 40.140467 126 118 131 
96.639945 -275.557393 40.140467 126 118 131 
92.372521 -269.387132 34.967955 101 103 121 
92.372521 -269.387132 34.967955 101 103 121 
92.828038 -284.734844 24.342328 100 110 120 
90.282955 -292.678085 35.237953 113 118 131 
99.846775 -341.612034 26.951474 60 28 40 
91.595677 -316.657840 41.099785 46 33 65 
90.824406 -317.226586 45.124511 121 111 126 
89.696992 -356.486439 21.008741 166 151 147 
19.159846 -116.807523 5.926217 51 36 34 
19.159846 -116.807523 5.926217 51 36 34 
79.824557 -334.759284 29.977150 170 155 151 
12.262213 -111.077693 0.439258 165 151 149 
3.315129 -102.515822 0.378798 168 155 151 
2.877868 -117.803109 0.332100 50 37 35 
20.109995 -193.461487 0.688900 52 35 36 
17.679332 -214.339713 2.728977 51 37 35 
17.679332 -214.339713 2.728977 51 37 35 
3.931869 -209.730426 2.144591 168 154 152 
3.931869 -209.730426 2.144591 168 154 152 
18.225757 -316.497259 1.363318 46 33 29 
329.199445 -15.488003 3.619320 49 35 30 
329.199445 -15.488003 3.619320 49 35 30 
308.973681 -1.570856 7.179860 171 150 144 
312.963525 -10.725521 6.757818 174 153 147 
312.963525 -10.725521 6.757818 174 153 147 
306.527025 -7.765105 5.858962 55 37 31 
306.527025 -7.765105 5.858962 55 37 31 
294.500808 -0.954017 8.932697 166 149 143 
325.029152 -80.997649 1.959037 54 37 31 
323.070148 -93.966428 2.019480 174 153 147 
305.976625 -82.277059 4.491275 171 150 144 
326.246831 -103.411487 0.912061 168 148 145 
314.604039 -95.909096 2.781298 170 145 140 
325.188712 -109.163917 1.016243 54 34 31 
294.595917 -77.235853 0.835957 57 38 32 
315.549368 -100.981766 2.705718 56 35 29 
315.549368 -100.981766 2.705718 56 35 29 
303.789561 -89.479124 3.605268 171 150 144 
311.035124 -109.582998 1.738345 176 154 151 
301.579347 -99.916063 1.728544 56 35 29 
207.706165 -10.248310 6.934403 171 149 146 
207.706165 -10.248310 6.934403 171 149 146 
192.950980 -1.175348 13.499649 48 31 25 
295.328697 -102.675168 0.964875 58 38 35 
302.258863 -183.500386 3.864509 54 36 33 
302.258863 -183.500386 3.864509 54 36 33 
219.588877 -93.421263 1.437947 54 39 35 
219.588877 -93.421263 1.437947 54 39 35 
190.979031 -74.863059 11.396855 52 31 26 
311.672072 -211.426888 2.394183 172 151 145 
302.065882 -201.953361 2.374752 170 149 143 
218.681099 -108.916756 2.440454 58 39 33 
117.207963 -4.257888 1.610287 173 154 148 
122.716489 -17.328499 0.177394 59 43 40 
104.872996 -2.086690 0.477008 65 46 40 
192.658769 -117.952091 6.038135 56 32 27 
84.599611 -19.406987 0.293287 61 41 38 
271.781820 -276.745173 20.132168 149 125 121 
263.692821 -269.222595 19.140390 147 124 117 
193.778628 -175.225745 4.396543 58 36 33 
249.110118 -266.806445 20.590843 30 2 2 
245.996044 -264.725898 23.096699 29 1 1 
245.918932 -264.322123 7.589108 41 13 13 
245.451738 -269.780281 12.434061 32 11 17 
7.933352 -9.353861 2.890880 59 43 38 
119.672438 -247.187853 36.985385 34 13 19 
4.706446 -76.908003 2.530064 63 43 40 
101.248139 -267.249639 53.160427 117 115 127 
103.947283 -265.666277 28.138306 97 97 110 
91.057103 -271.349880 50.689896 97 109 119 
91.057103 -271.349880 50.689896 97 109 119 
91.057103 -271.349880 50.689896 97 109 119 
96.564304 -289.225686 46.501097 104 112 121 
96.035325 -300.703961 13.446927 103 111 121 
95.580986 -312.846703 37.957841 18 13 88 
329.720165 -17.026357 1.670900 49 36 30 
329.720165 -17.026357 1.670900 49 36 30 
297.335374 -3.489848 4.671459 168 151 145 
297.335374 -3.489848 4.671459 168 151 145 
298.479512 -15.972723 2.088802 54 38 30 
323.321093 -79.224663 3.449191 54 37 31 
227.285069 -18.474808 0.177546 53 38 34 
227.285069 -18.474808 0.177546 53 38 34 
195.408669 -3.928417 9.599999 48 31 25 
209.908283 -12.230152 4.041705 171 149 146 
209.908283 -12.230152 4.041705 171 149 146 
321.110681 -91.615422 3.962252 174 153 147 
291.976409 -75.507401 3.217656 56 37 31 
326.112821 -101.264774 1.758641 168 148 145 
315.059494 -98.967126 3.683912 56 35 29 
331.863746 -114.119788 0.314844 54 36 33 
348.021534 -146.554015 17.247294 167 146 140 
223.360826 -75.952724 4.207234 60 41 35 
117.867883 -6.209746 0.895228 174 155 149 
226.417153 -100.579295 5.230295 63 42 36 
151.046679 -46.069319 11.587106 172 152 149 
108.099280 -13.550111 1.444774 172 152 149 
326.459406 -189.317166 4.328162 167 149 143 
225.600100 -114.367030 2.713774 56 39 36 
225.600100 -114.367030 2.713774 56 39 36 
321.015728 -191.367466 2.826752 54 32 29 
202.938891 -100.776383 2.148881 166 145 139 
325.158303 -199.294665 4.429872 52 31 28 
315.179683 -194.426473 7.339582 173 152 146 
204.001152 -107.176139 2.645454 53 32 26 
333.980696 -213.751866 4.187557 53 35 27 
321.146736 -204.360412 4.396453 171 150 144 
225.711561 -140.698214 26.406354 167 146 140 
203.060471 -116.247445 0.668541 61 40 34 
84.965724 -20.783921 0.149353 61 41 38 
84.965724 -20.783921 0.149353 61 41 38 
306.353887 -203.794506 9.834081 173 151 146 
190.356934 -114.844165 9.562525 56 32 27 
298.646590 -210.520160 7.301655 52 34 31 
98.427910 -48.813493 6.066625 170 148 145 
98.427910 -48.813493 6.066625 170 148 145 
230.133606 -170.205707 6.965293 60 39 33 
230.133606 -170.205707 6.965293 60 39 33 
115.637272 -84.673961 3.128225 175 153 150 
331.945998 -273.332128 9.245898 53 34 28 
218.572257 -181.608163 4.461100 178 156 153 
196.226108 -163.570021 8.361680 171 151 146 
117.857085 -94.152174 0.298483 178 156 153 
324.136310 -277.304787 10.052856 168 149 143 
208.358065 -185.095281 8.677845 63 41 38 
191.006513 -170.238825 9.252323 56 34 31 
255.446088 -229.058498 12.376247 175 153 146 
83.093208 -77.298062 2.859723 63 43 40 
83.093208 -77.298062 2.859723 63 43 40 
90.856516 -84.724305 2.799622 175 154 153 
210.600514 -191.407271 2.143786 63 43 40 
201.044363 -186.360290 4.850107 53 30 29 
102.985131 -99.587820 4.852463 60 38 35 
224.459939 -207.087221 0.608514 176 154 151 
106.589680 -103.879609 1.392738 64 44 41 
106.589680 -103.879609 1.392738 64 44 41 
91.350791 -93.147642 1.488771 177 157 154 
91.350791 -93.147642 1.488771 177 157 154 
98.489306 -100.285619 3.818836 176 155 154 
102.475630 -108.089379 1.963840 179 157 154 
102.475630 -108.089379 1.963840 179 157 154 
199.676307 -200.507220 0.932923 165 143 140 
106.537765 -118.433988 1.534606 65 43 40 
201.851214 -207.877431 4.361818 56 38 35 
236.550902 -253.105726 35.520794 30 2 2 
120.647871 -175.416566 3.782592 57 40 34 
16.862618 -78.015098 3.149786 60 43 37 
4.773332 -76.690178 2.678478 63 43 40 
12.085538 -84.247597 1.609572 175 155 152 
17.613190 -101.567589 2.077551 63 43 40 
100.947254 -186.931743 4.021622 99 77 74 
102.016054 -190.803273 6.571871 58 37 36 
102.016054 -190.803273 6.571871 58 37 36 
114.607588 -203.772918 4.750635 167 144 143 
123.444041 -215.171046 2.216789 67 46 39 
9.961931 -101.200589 2.264184 61 43 40 
83.332742 -176.361871 6.105151 59 42 36 
83.332742 -176.361871 6.105151 59 42 36 
98.529893 -191.829295 2.628431 58 38 35 
98.529893 -191.829295 2.628431 58 38 35 
11.548087 -110.115592 1.313978 173 153 150 
11.548087 -110.115592 1.313978 173 153 150 
3.411290 -102.103209 0.009912 175 155 152 
106.904939 -213.846559 3.589605 56 36 33 
3.645385 -109.450894 0.562041 62 42 39 
3.645385 -109.450894 0.562041 62 42 39 
90.523608 -209.115252 2.298855 173 151 148 
90.523608 -209.115252 2.298855 173 151 148 
83.021661 -213.409640 4.829366 61 39 36 
91.556190 -248.583961 62.383206 38 15 26 
17.558143 -190.477401 4.795122 61 43 37 
1.043159 -174.182529 3.419350 55 35 32 
79.515816 -275.938956 52.144143 28 31 70 
83.120408 -276.547421 4.599589 25 17 17 
4.262292 -189.146744 2.644626 59 41 38 
2.044774 -189.483072 5.506276 56 38 35 
90.143827 -294.304313 7.319919 16 13 20 
16.664535 -212.030469 2.134937 57 39 36 
16.664535 -212.030469 2.134937 57 39 36 
10.333775 -205.692140 1.728322 54 36 33 
82.933488 -313.173034 2.491142 21 17 20 
89.159324 -327.425783 13.896300 167 149 141 
47.978054 -289.529804 4.031748 163 148 144 
93.670875 -345.555153 10.025037 166 148 140 
120.361894 -387.551663 7.075261 49 36 32 
106.441427 -379.227003 7.490101 172 151 150 
106.441427 -379.227003 7.490101 172 151 150 
113.628198 -390.942717 6.388010 50 29 28 
113.628198 -390.942717 6.388010 50 29 28 
117.709454 -398.061079 5.722526 170 150 147 
106.305945 -391.279563 6.909562 167 149 146 
94.579848 -385.172099 9.524517 168 148 145 
85.312690 -375.833617 7.772537 43 34 26 
85.312690 -375.833617 7.772537 43 34 26 
100.845052 -398.061535 4.769069 50 30 27 
6.445195 -290.201303 4.001690 46 28 25 
6.445195 -290.201303 4.001690 46 28 25 
2.942760 -287.023466 2.974399 168 150 147 
5.917675 -397.860532 5.397816 166 149 143 
335.101349 -4.763536 0.188410 55 36 30 
326.777481 -73.646381 2.063621 59 37 34 
229.930054 -102.093805 1.856160 62 42 36 
330.876285 -192.842111 0.575220 168 149 143 
335.850738 -201.233194 2.004368 59 40 34 
320.055924 -198.066341 3.172113 176 155 149 
230.837277 -143.387705 21.730931 167 146 140 
312.840646 -201.115291 2.957865 57 35 32 
300.709579 -197.586557 6.428056 171 150 144 
300.709579 -197.586557 6.428056 171 150 144 
312.210286 -207.953720 4.976632 173 152 146 
301.965437 -213.651945 4.299582 52 34 31 
202.102274 -168.230882 1.292721 170 150 144 
221.214448 -183.988904 1.738539 178 156 153 
101.106080 -101.489613 0.378999 176 155 154 
327.929704 -281.686423 7.003256 167 148 142 
256.088057 -230.439881 12.746930 173 153 145 
203.201523 -188.529608 2.629444 57 34 33 
204.459840 -210.570571 1.913105 57 39 36 
214.032740 -228.456164 4.344346 173 150 143 
19.928882 -89.897961 0.896747 65 46 40 
122.280782 -177.214261 1.651138 57 40 34 
18.126444 -101.795251 0.771064 63 43 40 
112.786573 -185.600024 2.607992 168 148 145 
116.055356 -193.758341 1.670123 170 151 145 
97.692146 -182.796088 5.104641 177 155 152 
97.692146 -182.796088 5.104641 177 155 152 
84.053767 -177.628404 4.853801 59 42 36 
3.346682 -109.145509 0.521175 63 43 40 
3.346682 -109.145509 0.521175 63 43 40 
115.277362 -208.506470 2.355300 171 148 147 
123.512583 -216.605511 1.848389 66 46 39 
107.425113 -207.021688 1.689960 62 41 39 
107.895120 -215.966690 2.061670 56 36 33 
173.442804 -294.606680 63.177613 60 33 126 
83.644813 -215.245610 3.528821 61 39 36 
83.644813 -215.245610 3.528821 61 39 36 
146.334726 -290.105526 67.245365 100 76 137 
18.112151 -175.603699 2.187857 57 40 34 
93.287120 -259.132993 63.668817 117 115 127 
0.649609 -174.956258 2.898023 55 35 32 
17.786056 -191.754260 3.331641 62 43 37 
9.746023 -189.987110 4.114564 57 39 35 
16.757034 -213.879430 0.693480 57 39 36 
16.757034 -213.879430 0.693480 57 39 36 
83.375136 -299.581077 0.946238 27 19 21 
86.928240 -306.502919 5.373586 112 107 113 
91.715147 -323.109349 31.506396 99 104 114 
81.981313 -315.530893 2.960103 21 17 20 
48.417362 -293.950842 2.339193 163 148 144 
91.747102 -347.263053 11.852135 165 148 140 
104.753013 -394.300528 8.143680 167 149 146 
82.036141 -376.487846 11.188356 43 34 26 
82.036141 -376.487846 11.188356 43 34 26 
77.471094 -371.982707 7.763531 47 32 25 
1.284618 -288.625638 3.760402 168 150 147 
3.944011 -301.875685 1.431317 170 153 147 
6.860522 -374.336792 11.089640 43 31 24 
2.844840 -399.775346 7.979723 167 150 144 
223.399338 -15.980514 4.728882 50 34 32 
223.399338 -15.980514 4.728882 50 34 32 
203.428113 -3.489698 8.644458 47 28 22 
203.428113 -3.489698 8.644458 47 28 22 
210.780826 -10.061598 3.904402 154 139 135 
198.102994 -1.148337 8.046477 48 29 23 
202.884486 -8.946939 0.699736 149 130 124 
191.557459 -17.033720 13.225360 51 32 29 
198.798032 -23.663580 9.502385 155 134 128 
186.925848 -39.399921 9.367623 255 247 241 
186.493347 -53.673130 9.919783 222 201 195 
196.549930 -71.945772 0.258656 121 101 98 
188.904033 -69.011471 5.727969 192 168 163 
113.904040 -9.165875 2.728210 57 37 34 
107.937393 -4.600008 4.239463 53 35 32 
107.937393 -4.600008 4.239463 53 35 32 
207.116325 -136.810281 41.165435 160 139 133 
98.011407 -18.559733 3.065565 53 37 34 
219.591620 -150.065670 1.578806 167 145 142 
195.583296 -127.074075 0.368221 147 128 122 
152.805952 -94.411910 10.258331 164 144 141 
180.819352 -161.911417 19.483753 162 141 135 
277.989031 -284.695650 11.917936 148 124 122 
272.574943 -278.824313 9.041763 137 115 112 
263.775481 -280.015586 3.970048 26 2 1 
250.470882 -276.125080 5.602400 29 9 13 
198.850908 -224.690676 13.027467 163 142 136 
198.850908 -224.690676 13.027467 163 142 136 
183.590337 -218.645717 8.097512 49 24 22 
207.745013 -276.243770 11.169296 69 53 90 
196.032678 -281.942196 36.615942 59 70 132 
196.502120 -277.693256 11.194910 7 9 54 
183.170412 -274.598752 45.660949 7 21 81 
196.384025 -279.664718 11.748572 49 53 96 
197.095544 -291.299442 34.777129 1 20 81 
187.232481 -275.026892 14.153865 47 49 94 
185.615781 -269.807796 4.784607 41 42 79 
177.506803 -275.031563 45.450444 59 75 137 
177.506803 -275.031563 45.450444 59 75 137 
181.125200 -280.857972 47.556564 18 30 91 
171.386695 -272.251514 39.106603 69 52 107 
176.222308 -279.207368 34.392611 71 49 105 
179.485148 -276.407085 10.627752 59 48 87 
172.160647 -265.531353 1.318794 63 52 93 
172.160647 -265.531353 1.318794 63 52 93 
166.478698 -278.035107 45.454973 48 18 85 
158.694748 -288.846377 38.141095 96 59 67 
9.160728 -83.647455 5.900436 164 144 141 
9.160728 -83.647455 5.900436 164 144 141 
102.333176 -259.773089 48.891126 32 14 19 
104.759749 -269.906116 49.220274 115 110 122 
108.214221 -272.016298 33.056979 92 95 100 
112.221277 -273.424848 17.271241 86 86 98 
105.875595 -267.070126 21.184811 6 2 46 
93.055321 -272.283788 48.505842 89 101 113 
93.055321 -272.283788 48.505842 89 101 113 
99.400934 -278.730803 29.124634 92 103 115 
93.570432 -285.122023 28.879038 93 97 120 
106.132679 -303.380711 19.632734 89 98 121 
94.719422 -290.399224 30.517167 38 46 67 
99.241706 -291.933739 7.465487 14 7 88 
103.608616 -305.634824 19.784031 19 14 70 
103.608616 -305.634824 19.784031 19 14 70 
98.723565 -295.409153 0.969141 97 95 122 
100.284690 -305.124448 6.778068 90 100 112 
104.532197 -313.892453 9.099753 86 94 116 
101.020912 -319.705465 39.190807 104 102 119 
101.020912 -319.705465 39.190807 104 102 119 
93.469960 -309.685199 39.864667 15 10 88 
94.914432 -313.053544 31.885637 16 10 82 
104.932245 -330.319958 14.677778 91 100 113 
322.890140 -9.297934 2.962208 51 30 27 
322.890140 -9.297934 2.962208 51 30 27 
311.777699 -3.762094 3.143926 161 140 134 
299.856135 -3.580595 3.038627 160 141 135 
299.856135 -3.580595 3.038627 160 141 135 
299.175627 -16.093511 1.970441 47 32 28 
322.946870 -79.400785 3.352499 50 35 31 
196.663391 -3.777820 8.747010 48 29 23 
209.115143 -11.939671 4.943573 154 139 135 
209.115143 -11.939671 4.943573 154 139 135 
321.827255 -92.211768 3.145608 162 141 135 
292.681341 -75.995503 2.670417 52 33 27 
193.057787 -15.041707 9.244498 162 143 137 
191.805365 -14.830034 10.404981 162 143 137 
196.230496 -20.264421 7.691191 51 32 28 
196.230496 -20.264421 7.691191 51 32 28 
323.252473 -101.109662 3.803474 162 143 137 
318.564319 -106.081832 2.404814 162 143 137 
298.767645 -94.937177 1.056462 168 146 143 
300.362664 -97.486599 3.496570 51 30 25 
300.362664 -97.486599 3.496570 51 30 25 
192.853590 -54.964988 5.546155 142 121 115 
225.218407 -76.728803 2.100210 55 35 32 
184.739275 -52.930891 11.974855 218 197 191 
117.043473 -5.822222 1.772013 163 143 140 
300.775519 -142.238882 7.587133 159 138 132 
114.551030 -11.359694 2.447839 58 38 35 
192.575615 -69.343100 5.574556 127 106 100 
121.766818 -18.405571 1.391794 53 38 34 
121.766818 -18.405571 1.391794 53 38 34 
193.861379 -75.324686 8.710956 51 31 28 
193.861379 -75.324686 8.710956 51 31 28 
197.398563 -82.836721 3.121714 147 127 124 
220.456206 -100.974512 2.323193 163 141 143 
220.456206 -100.974512 2.323193 163 141 143 
321.765976 -178.784742 7.096501 160 141 138 
212.405737 -100.833612 1.368045 60 39 36 
218.712330 -106.993235 2.932612 57 37 34 
226.324866 -114.956551 1.820247 52 36 34 
226.324866 -114.956551 1.820247 52 36 34 
327.211604 -190.347831 3.040757 159 142 136 
204.033697 -101.631613 1.117187 156 136 133 
214.165535 -110.390268 0.452798 164 142 142 
328.146572 -197.328306 7.302595 55 35 32 
300.956239 -179.116165 7.112464 50 34 32 
318.725674 -191.665427 4.157659 47 30 24 
203.503941 -107.404447 2.894477 56 35 29 
317.822981 -196.413820 4.479422 165 144 138 
336.985319 -216.321442 1.005269 51 32 26 
245.747351 -151.512914 5.707539 159 138 132 
299.461273 -196.301297 6.749050 157 140 134 
299.461273 -196.301297 6.749050 157 140 134 
190.665387 -115.422408 9.111420 50 30 27 
310.621840 -206.588260 5.734776 160 142 138 
189.088950 -120.512394 9.436703 147 128 122 
184.405267 -122.364253 9.780136 189 167 164 
300.193359 -212.204109 5.127722 52 34 31 
122.405200 -77.850751 2.737437 59 39 36 
113.830308 -84.117417 4.997830 163 143 140 
115.835393 -93.709075 2.519701 168 146 143 
337.615979 -274.508304 9.335061 161 142 135 
218.974261 -182.607353 3.607014 172 150 147 
100.317663 -90.397524 5.821648 54 39 35 
100.317663 -90.397524 5.821648 54 39 35 
79.377614 -75.846491 7.600301 57 37 34 
87.592629 -83.644207 6.576947 159 141 138 
86.378273 -83.265620 8.262058 159 141 138 
327.842554 -280.799686 6.052557 161 142 136 
327.842554 -280.799686 6.052557 161 142 136 
190.299375 -170.200249 9.757666 55 33 30 
122.664298 -116.395581 0.417719 54 39 35 
122.664298 -116.395581 0.417719 54 39 35 
103.924232 -103.147747 4.429806 59 39 36 
103.924232 -103.147747 4.429806 59 39 36 
261.633951 -233.176920 6.863431 164 143 137 
91.811143 -93.347393 0.465874 165 145 143 
91.811143 -93.347393 0.465874 165 145 143 
98.149139 -100.248690 3.850040 168 150 147 
230.294805 -214.167798 3.005874 60 39 33 
230.294805 -214.167798 3.005874 60 39 33 
102.080267 -108.286538 2.106369 166 147 144 
102.080267 -108.286538 2.106369 166 147 144 
105.215206 -118.272602 2.530612 63 40 39 
200.293819 -205.044707 0.788791 44 24 22 
252.110640 -257.367249 32.215978 137 115 112 
248.131423 -261.216877 24.838377 28 3 2 
202.647753 -220.933170 3.432711 164 143 137 
186.216966 -211.233607 10.934164 52 32 29 
186.216966 -211.233607 10.934164 52 32 29 
246.096087 -265.272900 15.902168 29 9 13 
88.860203 -139.373067 16.171492 163 142 136 
88.860203 -139.373067 16.171492 163 142 136 
4.322225 -76.334495 3.256463 58 34 36 
12.547916 -84.851323 0.156003 164 144 141 
12.547916 -84.851323 0.156003 164 144 141 
12.411721 -95.203813 1.725236 160 145 141 
12.411721 -95.203813 1.725236 160 145 141 
15.802523 -100.880162 4.336016 53 38 33 
115.940488 -193.438689 1.590416 160 140 137 
115.940488 -193.438689 1.590416 160 140 137 
117.765004 -197.670754 7.545717 56 38 35 
95.980935 -181.246501 6.945543 163 143 137 
95.980935 -181.246501 6.945543 163 143 137 
9.633758 -101.218812 2.524073 51 33 30 
103.840201 -189.309389 1.046685 52 34 31 
103.840201 -189.309389 1.046685 52 34 31 
115.753415 -204.839255 2.970874 162 143 142 
81.824638 -175.749680 7.631008 55 37 34 
81.824638 -175.749680 7.631008 55 37 34 
113.931068 -206.861807 3.841970 156 140 138 
113.931068 -206.861807 3.841970 156 140 138 
123.939226 -216.215636 1.170553 64 43 37 
123.939226 -216.215636 1.170553 64 43 37 
101.435705 -198.040848 2.245702 165 147 144 
94.280351 -192.116352 6.128383 51 34 31 
94.280351 -192.116352 6.128383 51 34 31 
107.871489 -206.457891 1.244553 52 37 33 
88.813446 -189.842487 4.763627 163 145 142 
118.289368 -228.129890 4.412043 165 144 138 
84.372742 -214.900606 2.789543 54 36 33 
84.372742 -214.900606 2.789543 54 36 33 
103.885981 -237.038787 8.872904 108 98 98 
93.195755 -249.250158 60.412393 31 13 18 
93.041959 -249.416208 53.116273 27 11 16 
95.837733 -251.972154 9.540171 18 9 51 
99.319010 -258.233520 35.724698 85 85 97 
17.222588 -174.270963 4.085822 54 36 33 
17.222588 -174.270963 4.085822 54 36 33 
97.169051 -261.107413 59.439435 115 111 121 
97.169051 -261.107413 59.439435 115 111 121 
10.249353 -181.527891 3.930927 160 142 139 
10.249353 -181.527891 3.930927 160 142 139 
18.168510 -191.085260 3.749854 53 39 32 
96.555920 -271.937198 0.025591 101 96 96 
84.324875 -262.940662 59.657220 88 100 112 
84.324875 -262.940662 59.657220 88 100 112 
84.324875 -262.940662 59.657220 88 100 112 
92.346446 -270.662696 6.161073 7 0 16 
11.385746 -198.482924 2.521161 160 142 139 
11.385746 -198.482924 2.521161 160 142 139 
3.710113 -190.970319 2.991131 53 36 32 
3.710113 -190.970319 2.991131 53 36 32 
89.095431 -284.245705 19.480977 97 104 116 
79.245083 -273.857866 8.526965 22 17 18 
89.993542 -290.431642 1.642089 107 100 106 
16.807941 -212.615088 1.537519 50 35 31 
16.807941 -212.615088 1.537519 50 35 31 
7.259998 -203.072269 6.400070 50 35 31 
7.259998 -203.072269 6.400070 50 35 31 
88.594567 -290.283751 24.981116 90 100 112 
88.594567 -290.283751 24.981116 90 100 112 
90.962583 -295.263933 6.014628 19 15 18 
84.104372 -299.145312 53.223898 17 12 88 
87.163883 -304.009482 5.482664 100 93 97 
86.570465 -309.572820 0.252047 26 16 23 
79.432178 -305.667229 10.389804 19 15 18 
79.432178 -305.667229 10.389804 19 15 18 
84.296139 -314.943387 0.308692 20 16 19 
87.913552 -320.643246 30.307774 26 16 86 
95.336763 -333.983525 5.596844 154 138 137 
44.291096 -286.101326 9.382921 154 139 135 
108.223333 -385.315684 12.198303 43 24 23 
102.758574 -385.173870 1.927276 43 29 22 
102.758574 -385.173870 1.927276 43 29 22 
107.888960 -393.502495 4.091563 155 138 132 
95.620044 -386.599850 7.601743 163 143 140 
82.946498 -374.046257 9.933064 42 29 25 
101.724084 -399.609827 2.811967 46 28 25 
9.760027 -293.208137 5.483392 158 140 137 
9.760027 -293.208137 5.483392 158 140 137 
17.938939 -314.473128 0.406130 44 31 27 
1.978734 -295.096997 6.197037 157 143 136 
7.076050 -368.654426 12.795165 40 30 25 
7.076050 -368.654426 12.795165 40 30 25 
337.009581 -201.396673 0.877743 55 35 32 
324.022893 -199.331641 0.190642 166 145 139 
315.418858 -202.049036 1.182222 51 37 30 
222.850608 -184.602900 0.112138 172 150 147 
198.446107 -174.366429 2.116227 55 33 30 
212.484494 -188.248673 4.182244 58 36 33 
336.422497 -277.512807 6.055037 47 27 24 
261.001679 -232.864313 8.695056 164 143 137 
330.627568 -282.866156 5.408291 162 143 137 
244.723941 -259.243297 29.147905 28 2 2 
234.558470 -253.073559 1.587934 41 30 34 
122.983653 -177.561732 0.480214 53 36 30 
122.983653 -177.561732 0.480214 53 36 30 
185.546754 -228.187597 0.271338 163 141 138 
113.844037 -186.122798 1.045443 158 140 137 
85.707035 -178.664560 2.327986 55 37 34 
104.953984 -193.459905 2.012799 54 35 33 
104.953984 -193.459905 2.012799 54 35 33 
97.049045 -194.500213 2.488508 52 34 31 
85.354350 -216.375908 1.393019 54 36 33 
85.354350 -216.375908 1.393019 54 36 33 
108.399499 -241.834954 3.161649 109 99 99 
18.679310 -176.093934 0.586646 54 36 33 
18.679310 -176.093934 0.586646 54 36 33 
1.299542 -175.633207 1.009048 53 35 32 
18.545106 -192.403886 1.885846 53 39 32 
167.485571 -303.916460 64.658563 26 12 96 
10.951755 -191.597845 0.861757 53 35 32 
10.951755 -191.597845 0.861757 53 35 32 
11.404084 -199.656316 1.043972 159 142 139 
82.278858 -278.662817 4.400398 22 17 18 
89.826600 -292.767587 1.302892 107 100 106 
89.826600 -292.767587 1.302892 107 100 106 
83.125740 -316.766197 1.477180 20 16 19 
91.870626 -347.887176 11.194594 156 139 133 
9.381949 -282.959023 3.838447 44 31 27 
117.526132 -389.991460 9.991194 46 31 27 
104.575879 -382.197183 8.757456 160 142 139 
104.575879 -382.197183 8.757456 160 142 139 
0.960079 -288.690152 3.346312 158 143 139 
0.960079 -288.690152 3.346312 158 143 139 
104.410145 -394.634362 8.197985 155 138 132 
76.781695 -372.012095 6.794440 39 23 19 
76.781695 -372.012095 6.794440 39 23 19 
16.537380 -317.068427 0.414758 43 30 26 
16.537380 -317.068427 0.414758 43 30 26 
99.662623 -399.066734 6.759425 39 22 16 
99.662623 -399.066734 6.759425 39 22 16 
100.163798 -398.886255 10.371280 163 145 142 
0.385917 -398.032056 10.344013 153 136 136 
213.347104 -12.692700 1.161538 154 139 135 
334.961646 -200.141466 1.326326 55 35 32 
103.870953 -80.459504 0.123962 55 39 35 
304.233342 -197.972159 2.454901 157 140 134 
304.233342 -197.972159 2.454901 157 140 134 
122.152742 -176.918255 0.986768 53 36 30 
122.152742 -176.918255 0.986768 53 36 30 
239.447782 -253.357909 38.405903 143 115 115 
123.226300 -201.142823 0.549016 56 38 35 
85.608447 -178.344336 2.372970 55 37 34 
90.542668 -190.974126 2.228197 163 145 142 
181.429737 -266.076480 65.974610 85 59 118 
91.416849 -210.408996 0.423697 164 144 141 
91.416849 -210.408996 0.423697 164 144 141 
86.042129 -216.215164 0.242435 54 36 33 
86.042129 -216.215164 0.242435 54 36 33 
166.433802 -271.171894 65.533647 57 73 140 
109.557775 -241.732725 1.245544 108 99 99 
1.954214 -175.763375 0.662260 53 35 32 
160.044524 -289.935783 61.078461 83 72 157 
19.317617 -192.408957 1.186589 53 39 32 
167.102682 -301.286247 61.966527 72 78 155 
165.068911 -306.741941 60.118688 54 73 142 
169.072779 -312.082724 60.598767 52 76 146 
96.048780 -260.122393 60.240253 115 111 121 
90.623925 -307.932755 0.054274 99 93 96 
47.494308 -291.420258 3.298745 154 139 135 
108.228072 -382.132215 3.266575 160 142 139 
108.228072 -382.132215 3.266575 160 142 139 
118.076142 -399.832348 3.093730 158 138 134 
98.392521 -390.644568 2.883573 163 143 140 
205.322622 -5.801957 0.252639 49 30 24 
229.437819 -84.975051 0.880891 57 40 34 
158.363414 -95.030534 4.637540 162 143 137 
331.590304 -190.352576 0.266803 159 142 136 
336.688047 -198.748982 1.203122 45 30 26 
322.368078 -196.274764 1.413199 165 144 138 
304.760307 -196.410014 2.962416 153 136 130 
304.760307 -196.410014 2.962416 153 136 130 
201.088551 -203.812060 0.333786 42 21 19 
325.303221 -272.590402 6.989871 47 27 24 
206.764733 -209.682347 0.029286 53 35 32 
118.364928 -181.615767 0.582913 155 137 134 
241.073136 -255.531480 30.761802 22 1 2 
111.815085 -183.758056 2.842603 158 138 135 
99.505630 -182.746927 2.343586 163 142 136 
99.505630 -182.746927 2.343586 163 142 136 
123.225929 -200.078899 0.710178 55 36 33 
101.312747 -187.035422 2.663354 99 80 74 
97.996328 -193.888888 1.224675 52 34 31 
97.996328 -193.888888 1.224675 52 34 31 
179.540492 -259.456113 65.439251 78 49 111 
169.156250 -256.528644 66.292482 59 67 132 
167.646720 -255.965781 62.567823 48 63 116 
170.743498 -263.198698 67.764045 62 78 150 
85.821710 -215.505819 0.576292 54 36 33 
85.821710 -215.505819 0.576292 54 36 33 
173.987051 -268.736846 68.193560 46 13 99 
161.205077 -263.438134 66.733660 55 84 146 
161.346026 -266.274002 67.769973 13 29 95 
108.109409 -239.672376 3.379888 105 95 95 
156.857465 -267.440143 61.397598 96 70 132 
152.984488 -265.109102 65.878285 99 71 135 
152.984488 -265.109102 65.878285 99 71 135 
162.851941 -280.682833 68.546898 67 81 153 
164.518109 -290.519356 63.919731 56 93 158 
157.458176 -288.342832 63.869212 79 68 150 
173.215719 -307.190161 65.218199 106 77 142 
173.215719 -307.190161 65.218199 106 77 142 
93.383509 -256.157315 51.060828 85 88 93 
149.824961 -294.997045 63.182356 96 72 131 
157.852931 -301.083635 65.093841 6 18 86 
161.697414 -304.878564 63.397117 59 74 143 
161.697414 -304.878564 63.397117 59 74 143 
93.828816 -259.069456 62.049535 103 106 117 
173.214436 -316.128961 66.723417 100 78 134 
149.975139 -305.451017 61.130577 97 68 139 
163.636059 -327.004346 65.613565 28 21 100 
92.016698 -283.175526 30.950538 85 88 114 
86.336648 -282.619726 22.654939 92 99 110 
86.336648 -282.619726 22.654939 92 99 110 
89.739450 -281.403832 54.634475 92 99 110 
90.062104 -291.143052 0.482876 105 98 104 
145.772445 -320.563385 64.866300 96 71 137 
88.274747 -283.895973 43.610823 85 91 113 
88.223518 -290.811671 24.616110 88 98 110 
89.076238 -306.789344 1.973767 105 96 101 
10.178294 -282.505657 1.615855 41 31 26 
91.880736 -345.794835 10.459984 152 135 129 
1.289701 -287.826716 2.194452 157 142 138 
9.923956 -296.358125 1.947803 148 135 131 
103.984365 -379.677647 8.284455 158 140 134 
115.703564 -395.701332 7.574366 161 140 138 
115.703564 -395.701332 7.574366 161 140 138 
97.364868 -382.153292 6.982085 43 29 25 
97.364868 -382.153292 6.982085 43 29 25 
113.837138 -397.122361 8.261962 154 134 131 
103.226686 -391.225615 8.343928 154 137 131 
4.224992 -370.698192 12.050246 37 27 22 
0.678812 -396.963664 8.187941 151 135 133 
106.090127 -193.512335 0.011879 54 36 33 
106.090127 -193.512335 0.011879 54 36 33 
169.467029 -257.217666 60.816628 47 62 113 
173.059549 -264.787615 65.557860 62 78 150 
163.666845 -265.097965 64.408184 55 84 146 
168.556253 -268.262506 65.965693 47 80 143 
163.529971 -267.753968 65.692055 13 29 95 
171.099931 -274.458886 66.959261 75 75 150 
167.279881 -285.180535 65.896233 23 23 103 
165.996778 -291.447833 62.412413 55 92 157 
173.035362 -297.462502 62.863757 82 68 151 
173.035362 -297.462502 62.863757 82 68 151 
159.610224 -289.831479 61.688262 77 67 148 
166.612672 -301.065840 62.857362 63 74 150 
166.612672 -301.065840 62.857362 63 74 150 
164.126724 -313.984592 61.595056 57 81 146 
151.559853 -307.173142 59.074033 100 71 142 
149.322044 -308.863874 59.593569 100 72 139 
159.025844 -321.473321 62.309340 12 28 94 
114.126500 -393.551790 4.214854 47 27 26 
99.490460 -383.279657 4.481610 43 29 25 
99.490460 -383.279657 4.481610 43 29 25 
99.416570 -398.945708 4.269955 47 29 26 
99.416570 -398.945708 4.269955 47 29 26 
3.512754 -398.438696 5.098428 151 135 133 
329.143515 -2.653146 5.110630 49 32 26 
307.627776 -3.040781 5.799404 153 135 132 
307.627776 -3.040781 5.799404 153 135 132 
296.972151 -0.655787 2.965615 156 138 135 
316.246729 -7.869433 7.302862 46 28 25 
316.246729 -7.869433 7.302862 46 28 25 
296.507138 -3.097607 5.399522 156 137 133 
296.507138 -3.097607 5.399522 156 137 133 
308.836715 -8.685356 2.585918 51 30 24 
308.836715 -8.685356 2.585918 51 30 24 
296.524040 -15.323466 3.723126 44 31 27 
296.524040 -15.323466 3.723126 44 31 27 
197.035582 -4.661479 8.521651 41 27 20 
206.967460 -12.073303 6.665888 148 129 128 
223.624884 -18.186569 3.556667 43 32 29 
194.763878 -20.464083 9.929823 44 30 26 
252.480589 -43.532995 12.696123 154 135 129 
252.480589 -43.532995 12.696123 154 135 129 
252.480589 -43.532995 12.696123 154 135 129 
132.280314 -7.966218 5.938231 131 111 108 
111.087485 -12.441442 7.049614 56 37 33 
318.071539 -76.627222 6.469147 45 32 28 
107.328656 -14.504109 2.850335 161 143 138 
121.685723 -19.518753 1.919135 49 36 32 
121.685723 -19.518753 1.919135 49 36 32 
290.184476 -73.924957 4.205899 51 31 28 
91.953162 -15.014171 1.057401 161 141 138 
91.953162 -15.014171 1.057401 161 141 138 
319.155096 -89.530659 4.596283 158 137 131 
101.653841 -21.961358 0.364347 48 32 30 
91.987197 -19.642229 1.486804 55 35 32 
311.847858 -91.977847 5.572877 162 140 136 
310.219801 -91.748422 6.836945 162 140 136 
323.902987 -99.004438 3.097831 157 137 131 
85.237698 -22.131240 1.058223 46 34 27 
85.237698 -22.131240 1.058223 46 34 27 
321.050265 -104.154721 0.207120 155 137 129 
220.712081 -74.751043 5.481988 52 34 31 
220.712081 -74.751043 5.481988 52 34 31 
329.814047 -111.723649 1.775645 45 30 26 
329.814047 -111.723649 1.775645 45 30 26 
312.232342 -107.214451 7.270551 165 147 139 
312.232342 -107.214451 7.270551 165 147 139 
252.023340 -94.037855 7.608694 156 137 131 
252.023340 -94.037855 7.608694 156 137 131 
216.218281 -82.258746 4.051867 157 136 135 
1.090009 -9.882032 6.971786 162 142 139 
296.961277 -111.566706 2.126520 47 33 28 
221.938871 -90.539247 4.692277 50 35 31 
3.673307 -15.827769 0.687441 160 142 139 
3.673307 -15.827769 0.687441 160 142 139 
212.773325 -92.690539 1.606293 159 135 137 
212.518697 -93.207196 2.619002 161 138 137 
218.104514 -98.910537 4.214855 157 137 134 
218.104514 -98.910537 4.214855 157 137 134 
208.275921 -98.354330 5.161867 57 35 32 
214.777200 -104.336275 6.244463 47 28 27 
210.999623 -107.727671 3.326002 162 139 138 
224.136952 -112.629985 3.701146 46 32 30 
224.136952 -112.629985 3.701146 46 32 30 
202.528438 -105.718259 3.727444 50 29 23 
218.105457 -111.411725 1.694608 53 33 31 
218.105457 -111.411725 1.694608 53 33 31 
147.737902 -91.894281 16.660876 162 142 139 
199.148210 -110.712979 1.459043 145 126 120 
202.698024 -115.234122 1.490346 49 32 29 
116.201717 -84.758401 2.205937 160 140 137 
328.155787 -169.013061 5.954964 48 30 27 
198.250862 -120.265348 7.774755 162 141 135 
85.346352 -78.295984 0.410068 52 37 33 
324.186753 -176.244619 5.115584 152 135 130 
89.386242 -84.527281 4.260912 159 141 138 
100.125259 -90.682007 5.757916 49 39 34 
288.314085 -166.993025 6.266134 43 25 22 
102.701248 -95.963935 4.336528 52 37 33 
102.701248 -95.963935 4.336528 52 37 33 
301.266038 -175.821781 8.853240 47 32 28 
327.597267 -187.038801 3.037134 154 137 131 
92.262685 -93.406070 0.406638 160 142 139 
92.262685 -93.406070 0.406638 160 142 139 
97.097741 -95.884218 2.132446 53 35 32 
99.114954 -100.282948 2.819274 162 143 142 
99.114954 -100.282948 2.819274 162 143 142 
318.970513 -190.189274 8.786080 49 29 26 
93.130968 -99.135546 1.815038 51 36 32 
314.053202 -191.510797 7.383968 158 139 133 
314.053202 -191.510797 7.383968 158 139 133 
325.079684 -198.302450 7.143441 158 136 133 
325.079684 -198.302450 7.143441 158 136 133 
119.497793 -114.455483 4.040694 53 38 34 
102.491616 -108.132641 2.016434 161 143 140 
102.491616 -108.132641 2.016434 161 143 140 
126.183950 -119.182600 3.334563 56 34 31 
126.582289 -119.535094 3.361231 53 31 28 
126.582289 -119.535094 3.361231 53 31 28 
322.409451 -202.182101 3.163193 155 135 132 
322.409451 -202.182101 3.163193 155 135 132 
294.421266 -191.166171 10.659848 154 135 129 
294.421266 -191.166171 10.659848 154 135 129 
79.287857 -101.810285 9.664201 51 38 34 
329.085282 -209.090436 6.942292 53 34 28 
310.638051 -202.677068 6.160244 157 138 132 
50.779439 -96.577085 2.101518 158 137 136 
50.779439 -96.577085 2.101518 158 137 136 
3.866136 -77.398941 4.137067 52 37 33 
297.388375 -207.550216 7.909987 45 30 26 
297.388375 -207.550216 7.909987 45 30 26 
9.150739 -84.085552 5.648520 157 139 136 
9.150739 -84.085552 5.648520 157 139 136 
192.250237 -164.418346 7.747587 152 130 127 
198.756300 -171.418193 2.788146 54 35 29 
198.756300 -171.418193 2.788146 54 35 29 
213.981034 -178.264251 7.566527 165 144 138 
189.009601 -167.404559 4.840033 157 137 132 
205.853486 -179.473567 2.219756 160 143 137 
11.900506 -95.477739 2.990148 156 141 137 
11.900506 -95.477739 2.990148 156 141 137 
14.609523 -101.027806 5.842027 50 40 35 
200.744430 -185.591788 10.452434 52 37 33 
200.744430 -185.591788 10.452434 52 37 33 
1.646731 -102.067021 3.044782 162 142 139 
195.776766 -197.180397 4.222781 152 130 127 
1.542834 -109.011942 3.751845 54 37 31 
1.542834 -109.011942 3.751845 54 37 31 
254.921252 -226.850317 11.326888 160 141 135 
17.819353 -117.556010 2.792707 54 36 33 
17.819353 -117.556010 2.792707 54 36 33 
329.663492 -269.014139 9.870336 49 29 26 
329.663492 -269.014139 9.870336 49 29 26 
118.673165 -173.579569 4.660396 53 35 32 
318.281404 -271.698264 13.439028 158 139 133 
318.281404 -271.698264 13.439028 158 139 133 
207.823487 -221.865174 9.948765 160 139 133 
195.684811 -217.007154 0.177379 49 27 24 
36.405020 -143.105818 14.562204 157 138 132 
36.405020 -143.105818 14.562204 157 138 132 
232.380484 -245.088564 15.259979 135 109 107 
76.754903 -170.649029 7.345650 52 37 33 
76.754903 -170.649029 7.345650 52 37 33 
109.126333 -188.246753 2.201258 49 30 24 
110.916300 -189.197685 7.113286 157 137 134 
159.297875 -213.325579 2.857156 154 135 129 
80.241644 -174.348348 8.859013 50 37 33 
80.241644 -174.348348 8.859013 50 37 33 
231.557619 -249.591571 9.322951 42 27 30 
234.709736 -250.461769 45.300843 32 5 8 
114.673583 -194.829268 10.002002 52 34 31 
100.284528 -189.174793 6.481963 54 36 33 
100.284528 -189.174793 6.481963 54 36 33 
328.092559 -306.092282 10.087553 48 30 24 
93.962677 -191.136880 5.872031 50 32 29 
93.962677 -191.136880 5.872031 50 32 29 
87.142596 -187.665513 6.346294 162 142 139 
95.742742 -193.517674 8.281145 160 140 137 
304.067289 -304.945160 23.066831 157 138 132 
103.090811 -202.560808 6.322827 48 33 29 
120.028564 -212.278670 4.852285 56 37 31 
105.446895 -211.975420 5.001477 52 32 29 
16.140560 -173.593755 4.625605 49 36 32 
16.140560 -173.593755 4.625605 49 36 32 
83.387124 -212.921405 4.067330 52 34 31 
83.387124 -212.921405 4.067330 52 34 31 
169.750226 -255.568312 65.528378 64 69 130 
155.882492 -253.425454 69.057195 45 63 124 
