ply
format ascii 1.0
element vertex 1078
property float x
property float y
property float z
property uchar red
property uchar green
property uchar blue
end_header
220.344567 -263.976509 81.909836 125 107 99 
226.368698 -260.892539 44.242595 82 31 1 
221.345586 -263.976925 84.244374 186 166 158 
205.047070 -265.562750 131.734450 179 163 155 
221.359153 -263.792073 85.604119 109 90 84 
218.702137 -264.144655 100.548567 116 92 80 
223.015803 -257.953054 35.966296 184 142 131 
222.268430 -265.992632 115.601371 159 155 162 
222.268430 -265.992632 115.601371 159 155 162 
225.042774 -257.154945 36.541290 111 83 77 
225.064611 -261.706099 78.031962 186 157 153 
218.749905 -266.110606 130.176305 177 172 171 
218.749905 -266.110606 130.176305 177 172 171 
222.193366 -253.648317 16.904348 178 153 144 
220.833713 -255.238033 34.304372 190 150 144 
223.861195 -264.046950 108.367122 109 81 74 
224.824775 -260.809570 79.530830 124 95 91 
225.238557 -260.168536 77.006583 105 79 74 
224.450372 -257.611700 57.598601 180 139 112 
227.116076 -255.368930 32.864993 110 81 79 
223.653532 -252.009333 10.338444 109 58 39 
223.653532 -252.009333 10.338444 109 58 39 
218.380729 -259.500395 87.581228 115 84 73 
219.979899 -253.189183 29.322089 102 84 82 
222.564125 -252.083112 22.540922 178 151 143 
216.560935 -261.865335 119.854974 164 162 167 
226.058547 -259.164541 80.935835 113 92 86 
224.229617 -261.189156 103.435789 197 163 149 
224.215651 -261.344803 105.327529 127 88 77 
224.215651 -261.344803 105.327529 127 88 77 
222.338678 -261.750345 113.158302 187 174 167 
220.868434 -258.586131 88.277771 191 165 159 
221.810811 -258.380224 85.281751 173 148 146 
221.810811 -258.380224 85.281751 173 148 146 
220.768860 -254.276280 51.460362 176 140 113 
217.816963 -247.681815 0.770344 164 145 140 
224.673809 -252.850405 36.426127 143 136 133 
220.906491 -255.933081 70.292872 177 147 141 
225.174817 -259.392996 93.238693 125 98 91 
221.861330 -250.912771 26.023573 161 152 149 
215.603956 -258.568300 104.199081 174 158 153 
216.286188 -250.599008 34.605304 142 71 46 
222.333657 -256.644933 76.484657 182 161 155 
302.981085 -264.715812 4.184213 151 132 131 
221.683492 -251.812513 37.740365 101 24 4 
218.988675 -249.452986 22.635240 172 157 155 
222.755661 -252.368574 42.206121 94 33 7 
223.455497 -260.703655 113.419524 119 92 63 
222.415694 -259.581459 105.929445 183 158 142 
198.340455 -257.559264 134.081496 208 168 154 
221.270428 -262.168095 134.345812 162 113 43 
221.400908 -247.464595 9.126608 144 84 62 
225.631391 -256.401710 81.291337 115 91 86 
220.714173 -252.222286 55.049149 184 136 115 
225.290223 -253.816684 61.047839 105 57 39 
224.529786 -248.589659 18.352079 102 63 47 
222.200193 -260.420294 124.851186 99 60 46 
223.279293 -259.697724 118.308994 151 106 50 
221.920350 -255.893458 89.632860 177 157 154 
172.435396 -250.533772 131.522728 166 127 101 
171.565944 -250.525932 133.109926 64 49 46 
220.203131 -246.064034 10.704827 153 94 72 
220.203131 -246.064034 10.704827 153 94 72 
204.210859 -257.355250 134.418790 218 172 154 
204.210859 -257.355250 134.418790 218 172 154 
224.053895 -258.104155 107.672033 182 156 138 
217.927545 -245.710404 14.117595 184 156 150 
219.244701 -248.779929 37.762627 163 95 66 
226.593379 -246.850826 9.199525 169 148 147 
221.334898 -255.423778 90.859752 107 87 84 
199.859981 -256.064931 133.977842 48 11 7 
220.982646 -259.533917 128.026410 207 165 145 
222.250101 -246.846418 21.172825 128 94 89 
217.883861 -254.101327 92.235204 119 83 65 
218.007936 -251.983373 75.264709 99 73 68 
218.007936 -251.983373 75.264709 99 73 68 
220.513138 -245.170590 15.213006 105 64 53 
222.720646 -253.677149 82.514633 164 155 151 
217.746993 -252.668712 83.278758 191 162 151 
222.808261 -246.504002 23.872970 176 154 151 
204.284551 -255.129486 132.901277 88 26 0 
225.696716 -255.517044 101.245877 175 145 123 
221.763481 -257.847151 127.403481 161 114 90 
220.822591 -252.803460 87.415212 105 82 75 
222.884510 -258.320094 130.054753 89 31 4 
223.188700 -255.403455 105.557785 102 66 48 
220.261189 -244.613957 24.605207 184 160 147 
219.106456 -245.156117 32.558820 114 84 76 
225.558913 -249.803625 60.316557 174 136 111 
220.889361 -243.330751 16.124660 133 104 101 
218.490706 -244.322209 29.222391 82 33 13 
216.739766 -249.077259 71.200432 106 85 79 
221.813028 -241.514360 1.708773 117 101 99 
217.069804 -256.325835 133.104560 110 29 0 
215.403502 -256.061650 133.995310 178 92 54 
221.422154 -249.650445 73.261548 176 155 152 
204.262847 -253.341583 134.158527 88 41 12 
204.262847 -253.341583 134.158527 88 41 12 
220.137270 -240.891339 6.150853 167 150 151 
223.501160 -244.146149 28.380464 192 160 145 
223.501160 -244.146149 28.380464 192 160 145 
217.495140 -242.740051 27.905122 121 71 51 
213.521436 -254.804241 134.537086 84 11 0 
221.719282 -252.066920 98.918988 178 139 115 
224.811417 -256.294299 128.073548 89 26 1 
224.811417 -256.294299 128.073548 89 26 1 
197.247796 -250.845074 132.472647 74 18 1 
219.745699 -249.963284 87.007007 116 94 93 
223.043784 -247.092310 58.542954 170 134 107 
194.237656 -249.828945 132.058607 199 167 138 
219.398307 -242.264808 32.796166 93 50 46 
222.435052 -243.880953 42.000322 116 25 0 
222.300020 -244.850122 50.276191 112 78 55 
224.768191 -252.458405 106.848102 168 143 120 
220.145752 -252.258489 113.846058 176 142 123 
217.876878 -251.856265 114.827016 171 148 119 
217.243434 -242.273401 42.038492 165 135 112 
224.437570 -254.806093 129.471459 170 113 79 
224.437570 -254.806093 129.471459 170 113 79 
217.895504 -250.028668 107.340477 174 147 118 
217.895504 -250.028668 107.340477 174 147 118 
218.102187 -250.686670 114.131833 178 144 116 
221.545026 -251.277999 114.672681 91 33 7 
217.428974 -242.830108 55.727095 85 52 35 
220.134810 -252.495268 128.925160 99 32 0 
220.324766 -250.983360 117.252676 182 151 120 
219.782514 -242.148517 49.249315 162 130 103 
214.714531 -251.760149 133.588554 175 128 97 
221.692264 -243.290134 56.418067 164 134 110 
218.755619 -243.037697 60.659568 170 152 149 
220.190899 -249.799157 111.032236 98 37 4 
221.655394 -248.364380 97.915465 114 68 33 
222.663700 -251.775752 124.570090 132 94 57 
216.062085 -250.248634 124.009967 172 112 82 
216.062085 -250.248634 124.009967 172 112 82 
214.403665 -247.120970 102.894066 108 68 36 
214.403665 -247.120970 102.894066 108 68 36 
220.880558 -244.844774 77.637311 168 152 150 
221.879693 -250.167333 117.913667 88 34 3 
221.879693 -250.167333 117.913667 88 34 3 
222.167532 -240.254504 42.309426 183 145 128 
223.089926 -243.928154 71.282489 172 156 154 
217.408711 -248.819500 118.630647 166 140 106 
217.983649 -244.724673 86.945720 95 74 78 
220.994470 -243.507808 73.778396 164 153 148 
221.081399 -248.541303 114.594071 185 142 104 
221.725894 -243.548081 78.179242 162 144 137 
218.845507 -246.563820 110.529941 83 35 0 
217.924620 -246.689979 115.091984 100 33 2 
217.924620 -246.689979 115.091984 100 33 2 
220.222873 -245.395391 113.908866 80 30 0 
211.629056 -245.943977 132.262009 85 13 0 
221.077735 -245.787927 116.455127 173 120 81 
217.012470 -244.123249 134.391916 102 65 35 
213.235110 -230.725118 68.074161 174 154 146 
106.715184 -194.150906 2.963715 18 8 5 
207.691158 -215.076545 0.132274 38 24 22 
219.482968 -216.084026 0.087954 174 158 156 
226.703095 -215.238199 4.871768 165 144 143 
199.796479 -205.976373 3.462421 164 142 139 
209.787669 -197.610779 0.009072 37 24 22 
209.787669 -197.610779 0.009072 37 24 22 
302.956882 -217.987584 4.069633 43 28 29 
302.956882 -217.987584 4.069633 43 28 29 
199.440671 -189.376788 1.783572 160 140 137 
217.658952 -193.806923 1.580990 37 16 15 
337.899149 -220.142617 1.599594 44 29 30 
220.635540 -188.938851 2.413589 164 143 140 
191.988827 -177.789311 6.544948 43 24 23 
290.175557 -208.021341 28.907988 169 149 146 
132.397078 -160.498636 8.605458 164 141 135 
331.926085 -212.951506 2.601527 175 154 153 
334.506669 -213.976583 5.263068 175 154 153 
328.081113 -212.063907 5.928691 175 154 153 
305.902717 -204.017930 2.408426 174 155 154 
305.902717 -204.017930 2.408426 174 155 154 
305.902717 -204.017930 2.408426 174 155 154 
316.636807 -206.379853 4.449904 50 30 32 
328.147316 -206.869330 1.117428 43 24 23 
328.147316 -206.869330 1.117428 43 24 23 
11.443407 -117.775481 0.209177 148 128 125 
322.816588 -203.124498 1.660071 174 157 155 
339.865941 -206.083961 4.062867 43 33 30 
4.835547 -109.666018 2.037177 153 131 128 
15.840402 -103.379650 3.273086 139 123 115 
15.840402 -103.379650 3.273086 139 123 115 
333.456329 -195.736655 3.686648 177 155 154 
308.296584 -187.196645 1.093422 44 30 28 
308.296584 -187.196645 1.093422 44 30 28 
94.934414 -123.018525 4.461210 30 20 17 
94.934414 -123.018525 4.461210 30 20 17 
61.108587 -109.833080 6.509308 152 132 124 
331.817746 -187.921472 1.509499 173 150 149 
125.702428 -123.422768 5.736252 32 21 18 
112.496565 -118.664689 3.210534 145 132 123 
112.496565 -118.664689 3.210534 145 132 123 
107.992822 -115.991364 3.938502 150 132 124 
4.700808 -83.903300 2.064070 29 15 13 
93.979818 -110.812860 5.524952 32 22 17 
19.630418 -85.772029 3.470379 34 22 18 
111.499205 -112.726789 1.855259 152 134 131 
111.499205 -112.726789 1.855259 152 134 131 
340.185636 -180.897592 3.254796 42 29 25 
340.185636 -180.897592 3.254796 42 29 25 
104.104932 -98.042167 0.483151 28 18 15 
190.578466 -125.441388 6.975882 37 14 13 
195.404016 -127.721862 11.110154 45 22 21 
119.071607 -99.968227 2.693938 155 133 130 
151.850305 -109.363757 0.479782 162 142 134 
201.184371 -125.613938 11.486284 50 31 30 
217.300454 -125.242560 9.780373 36 23 20 
103.194015 -85.120576 2.059243 31 23 18 
121.407416 -90.945449 3.929617 147 129 126 
121.407416 -90.945449 3.929617 147 129 126 
206.989478 -118.848887 11.364487 174 154 151 
126.625196 -84.274731 3.808535 32 24 19 
221.473803 -117.161292 6.536979 162 144 141 
236.318462 -122.484185 7.733612 34 23 20 
217.962381 -110.124454 5.610543 42 22 19 
217.962381 -110.124454 5.610543 42 22 19 
208.188103 -107.041865 9.066321 173 151 148 
208.188103 -107.041865 9.066321 173 151 148 
222.938139 -108.972517 8.540384 42 22 19 
209.993105 -96.640105 6.743554 173 149 144 
224.193002 -97.737071 3.990131 31 10 9 
14.898261 -23.777066 10.024020 150 130 124 
27.030264 -26.529816 8.792585 30 20 15 
204.668261 -91.002363 11.193131 171 151 148 
235.349340 -100.495249 6.042050 36 24 22 
0.746760 -13.560505 12.424379 26 17 14 
16.564421 -17.494856 6.446372 32 16 9 
16.564421 -17.494856 6.446372 32 16 9 
200.089351 -83.256426 11.004976 49 32 26 
1.527534 -8.742089 7.276722 21 7 3 
5.994036 -10.632510 8.495940 28 11 5 
231.771552 -92.253073 8.874485 166 145 139 
309.898491 -119.567326 7.996984 42 28 26 
93.178437 -32.748868 12.681651 158 138 130 
238.592606 -85.486443 9.286027 35 26 18 
238.592606 -85.486443 9.286027 35 26 18 
335.614933 -120.935719 11.784633 170 150 147 
326.965041 -117.123826 11.470909 167 148 142 
333.643371 -118.737557 12.117914 168 148 145 
345.856165 -122.850242 11.567696 40 29 26 
345.856165 -122.850242 11.567696 40 29 26 
335.165131 -116.104943 11.890654 166 146 143 
335.165131 -116.104943 11.890654 166 146 143 
330.666583 -112.479712 11.964535 38 18 15 
330.666583 -112.479712 11.964535 38 18 15 
112.964500 -28.071953 17.616477 150 129 126 
331.336985 -108.440919 9.914595 42 25 22 
331.336985 -108.440919 9.914595 42 25 22 
329.460915 -105.229344 7.945739 47 27 24 
340.834322 -110.071901 10.419546 164 149 145 
121.841410 -22.135160 11.515428 146 126 123 
133.808712 -26.326733 10.145287 29 21 16 
133.808712 -26.326733 10.145287 29 21 16 
321.014415 -97.772787 10.390072 167 146 140 
321.014415 -97.772787 10.390072 167 146 140 
217.265295 -56.362407 14.798730 166 145 139 
336.405959 -100.172519 6.605815 168 148 145 
132.721912 -16.341577 13.913141 158 132 132 
328.710429 -94.554157 9.276844 42 22 19 
328.710429 -94.554157 9.276844 42 22 19 
122.361710 -10.260464 10.961570 31 10 7 
199.775388 -43.270454 18.230342 211 188 181 
129.567509 -8.201960 14.472156 155 130 128 
343.820680 -89.527127 11.790127 37 27 22 
343.820680 -89.527127 11.790127 37 27 22 
206.140657 -32.562739 22.775722 47 28 22 
209.326201 -30.170753 22.109230 47 29 27 
216.287021 -23.617602 22.377826 167 145 142 
216.287021 -23.617602 22.377826 167 145 142 
315.582815 -69.212857 40.288127 161 137 132 
248.075773 -29.813834 21.313216 33 22 19 
213.911860 -16.519793 26.847055 45 26 25 
223.188365 -14.810423 21.127139 41 25 23 
231.129332 -8.229054 20.711048 166 143 136 
282.070834 -2.782747 18.966902 159 136 131 
342.279793 -26.299356 21.398704 164 140 138 
336.200513 -23.317851 21.695686 35 20 12 
325.529332 -17.378965 21.418216 159 137 134 
325.529332 -17.378965 21.418216 159 137 134 
339.387476 -18.208369 22.071889 160 141 135 
339.387476 -18.208369 22.071889 160 141 135 
339.387476 -18.208369 22.071889 160 141 135 
323.513031 -10.061815 25.903690 31 23 18 
326.664467 -8.213916 21.347442 39 23 21 
326.664467 -8.213916 21.347442 39 23 21 
327.016989 -5.027617 20.343942 40 19 18 
327.016989 -5.027617 20.343942 40 19 18 
330.565956 -6.000471 28.468567 162 137 135 
330.565956 -6.000471 28.468567 162 137 135 
330.565956 -6.000471 28.468567 162 137 135 
94.759292 -303.802090 0.367015 35 24 21 
224.054160 -317.409342 0.992892 42 31 28 
224.054160 -317.409342 0.992892 42 31 28 
116.043338 -302.939434 2.601752 37 26 23 
101.918556 -297.345427 1.695129 160 149 146 
91.694713 -286.480520 7.122873 33 24 21 
103.923122 -287.050084 3.518869 165 146 145 
299.846464 -315.555533 0.447971 53 36 37 
125.548856 -287.318571 9.466213 38 27 24 
268.757521 -303.537174 8.525217 173 155 152 
210.631664 -287.531480 0.240492 154 146 148 
173.121816 -289.416107 122.763104 55 37 61 
172.017715 -288.430930 116.532544 81 39 14 
176.094043 -288.172241 121.813399 45 23 66 
182.033627 -286.106239 86.419264 150 117 86 
177.049610 -288.262126 127.244742 24 16 86 
188.337936 -285.963562 102.250941 80 40 24 
207.933191 -280.770201 6.958139 136 120 116 
192.337807 -285.531503 98.504804 106 49 29 
170.993143 -284.468275 130.902477 7 1 95 
170.993143 -284.468275 130.902477 7 1 95 
198.373834 -284.331871 75.459815 81 49 27 
180.450753 -285.155384 130.970591 109 95 183 
167.497469 -282.213417 122.453072 109 95 183 
162.873476 -281.293120 129.064170 28 3 69 
162.873476 -281.293120 129.064170 28 3 69 
185.299120 -284.825480 130.694869 21 5 121 
185.299120 -284.825480 130.694869 21 5 121 
170.117482 -282.180352 131.458738 137 124 170 
170.117482 -282.180352 131.458738 137 124 170 
166.162449 -281.564907 132.598367 102 93 101 
315.617151 -294.733084 0.077323 184 168 166 
217.841221 -281.267745 40.545628 74 89 110 
221.877454 -278.915263 7.105443 148 128 122 
215.468599 -279.725986 31.237475 63 55 86 
205.184760 -283.854878 98.954233 113 53 29 
165.658036 -279.461345 130.750137 21 1 68 
203.342579 -283.711129 106.314323 159 126 110 
203.342579 -283.711129 106.314323 159 126 110 
169.568359 -279.241238 131.333434 111 101 165 
197.230552 -283.930456 133.019908 135 68 5 
156.919158 -276.024990 126.419358 142 141 150 
162.873965 -277.052454 130.125220 133 133 140 
224.200714 -276.388443 3.620460 156 141 142 
187.996895 -281.577229 132.848054 125 114 187 
213.069754 -282.877041 102.604711 168 124 104 
217.557328 -283.038178 97.941936 95 46 17 
214.052833 -283.096247 105.862026 175 137 115 
217.634438 -283.825347 115.671289 101 52 28 
225.948290 -273.279281 5.980106 98 77 83 
224.103592 -274.442039 26.257048 116 101 98 
300.258389 -285.610189 0.090797 181 165 163 
300.258389 -285.610189 0.090797 181 165 163 
225.415590 -274.802728 30.647757 103 89 87 
225.415590 -274.802728 30.647757 103 89 87 
322.673710 -289.545411 3.591808 54 38 36 
322.673710 -289.545411 3.591808 54 38 36 
224.337838 -273.661070 37.720481 116 30 0 
227.150210 -276.653713 64.050732 196 170 156 
170.760367 -272.894742 131.662900 163 152 149 
173.482110 -273.386392 133.276947 163 152 149 
225.726701 -274.097529 43.951418 163 142 116 
227.185515 -277.139645 74.795875 179 161 148 
225.905212 -274.727445 54.150887 167 140 117 
228.512300 -273.570175 38.216692 187 146 135 
226.652603 -275.134630 62.164687 85 65 57 
223.921940 -273.926606 55.318124 115 84 61 
294.243618 -281.606065 3.526588 51 37 35 
224.603129 -268.557627 4.783001 142 110 94 
224.603129 -268.557627 4.783001 142 110 94 
313.565445 -283.728091 0.321113 50 35 33 
227.484320 -276.546489 88.694435 131 112 113 
224.765766 -269.190114 20.559340 174 128 120 
225.163935 -268.877857 19.355706 82 35 28 
226.729648 -275.020678 78.802753 109 83 78 
228.849722 -269.479989 20.834550 169 139 138 
224.570936 -268.711274 21.855514 94 58 52 
225.276102 -273.934308 75.830824 194 171 159 
225.276102 -273.934308 75.830824 194 171 159 
179.830643 -271.136803 132.884435 120 111 111 
228.057434 -277.624653 108.714183 124 78 36 
227.937631 -271.767391 53.346874 120 83 57 
162.052741 -266.634939 131.254346 102 66 39 
227.976400 -274.072820 83.283034 116 93 86 
226.533211 -267.277554 21.531969 202 171 160 
170.312995 -268.287759 134.565886 168 121 92 
231.604305 -276.521207 104.487067 132 90 52 
176.678047 -269.191053 135.002986 133 101 79 
228.077809 -275.144292 99.709170 180 136 98 
228.077809 -275.144292 99.709170 180 136 98 
179.804829 -269.485022 133.323967 192 166 153 
226.302100 -269.325611 52.219852 126 90 63 
226.302100 -269.325611 52.219852 126 90 63 
226.563726 -267.712046 37.334939 191 149 134 
229.506694 -266.665349 23.632935 141 111 105 
225.428196 -265.034792 16.124418 109 76 63 
224.672423 -269.150259 57.049299 114 85 62 
184.421568 -269.499764 133.717898 183 162 151 
229.607870 -273.986325 98.886976 131 82 46 
221.734965 -263.336170 14.435050 183 158 151 
226.103617 -264.486994 22.630780 121 84 79 
201.840977 -271.362013 134.387328 116 102 100 
224.323051 -265.193898 39.297719 195 122 101 
225.057732 -262.841218 15.935279 113 76 61 
225.057732 -262.841218 15.935279 113 76 61 
219.711780 -274.395984 134.319003 141 84 22 
225.922301 -263.637829 23.350633 189 162 156 
220.405675 -267.882521 75.985705 188 156 150 
224.063355 -265.645472 52.477511 171 136 110 
204.136718 -270.563888 134.102099 113 103 98 
223.008150 -271.066458 106.007489 108 85 57 
223.008150 -271.066458 106.007489 108 85 57 
227.514058 -273.813286 127.943866 147 103 49 
230.034240 -265.050915 44.804834 122 54 28 
223.477842 -259.251369 6.444788 181 145 130 
224.378058 -265.085313 61.665165 106 74 62 
224.786005 -268.212530 89.620419 183 157 152 
223.332620 -259.877280 16.743149 182 159 152 
225.468772 -269.502815 104.937837 171 155 135 
223.433471 -269.376202 107.944907 110 90 73 
223.433471 -269.376202 107.944907 110 90 73 
198.994259 -267.321322 134.058993 189 167 159 
224.723371 -268.656380 101.650435 120 87 70 
222.527561 -267.690016 98.913123 127 83 63 
170.223711 -261.259794 134.323343 91 77 74 
227.083471 -266.968633 90.125965 116 92 85 
220.958566 -255.763237 2.150673 181 157 154 
227.041500 -269.226616 112.293629 177 162 158 
230.132074 -263.600608 61.615710 185 142 120 
228.184881 -264.705777 80.074750 195 167 161 
223.795593 -263.414702 78.063222 96 64 58 
223.795593 -263.414702 78.063222 96 64 58 
208.733915 -266.681964 134.206991 180 164 156 
226.898400 -260.812832 54.444708 114 79 58 
221.045228 -254.966640 15.300254 187 161 156 
223.248037 -257.666772 36.068727 182 141 131 
224.830081 -264.362325 93.736900 184 151 139 
218.353634 -254.664727 21.149327 153 133 137 
224.785838 -254.472896 11.160896 141 89 64 
227.693039 -267.511031 119.470022 160 155 161 
226.908450 -261.190363 67.240572 127 95 87 
172.079235 -257.863042 134.094361 168 157 154 
172.079235 -257.863042 134.094361 168 157 154 
223.996837 -259.461124 58.499510 112 74 58 
224.916297 -256.772157 36.304424 109 81 76 
224.661666 -261.455827 77.580447 185 156 152 
222.119282 -255.275535 35.375958 190 150 144 
224.905791 -260.723073 79.469915 123 94 90 
224.905791 -260.723073 79.469915 123 94 90 
228.401391 -255.429510 33.969584 111 81 79 
223.335785 -260.873199 91.477962 118 86 75 
225.700388 -252.533420 18.497272 104 67 54 
222.875086 -259.657608 84.574006 104 79 77 
222.781219 -259.075023 82.635589 175 154 148 
224.744439 -261.410988 101.496753 121 78 56 
199.941746 -260.457500 136.042850 93 28 0 
224.674806 -261.310080 103.675593 198 163 149 
226.985818 -262.162734 107.389446 127 89 78 
223.848081 -254.998139 54.100816 166 131 105 
226.802360 -263.099664 116.611379 183 172 170 
223.784063 -258.878425 86.815760 173 148 146 
223.784063 -258.878425 86.815760 173 148 146 
226.402186 -265.282227 136.546667 205 177 155 
221.327032 -248.281665 4.142894 166 147 144 
222.551497 -260.866243 107.579574 111 87 75 
227.764523 -258.929451 85.809824 91 70 64 
227.764523 -258.929451 85.809824 91 70 64 
216.893023 -250.459199 35.035859 156 86 61 
219.598481 -250.851546 35.687569 99 24 3 
223.128391 -255.590200 69.239354 114 84 78 
226.183391 -253.224375 45.187194 94 33 7 
224.119537 -255.233736 65.778839 71 42 38 
223.976875 -260.058629 107.029186 182 157 141 
225.463965 -251.655966 38.868561 183 157 148 
200.822685 -258.357859 135.648659 207 167 151 
223.183169 -262.884131 135.643192 160 112 42 
222.767532 -247.408072 10.362527 111 47 26 
226.065887 -254.556860 64.902330 174 158 155 
227.770943 -254.194344 61.178551 185 137 116 
225.898364 -253.784945 61.477286 106 58 41 
224.613685 -256.698868 88.285070 163 141 136 
224.684832 -248.052373 18.571903 128 88 73 
225.837245 -260.519102 120.165376 151 106 50 
226.390734 -249.488552 31.702063 80 47 33 
220.975914 -245.819756 11.353927 134 75 53 
169.442585 -250.121790 133.057526 99 89 89 
169.442585 -250.121790 133.057526 99 89 89 
173.453640 -251.086487 134.212400 65 49 47 
204.239820 -257.475918 134.340950 219 173 155 
224.463758 -258.245082 107.879940 181 155 137 
225.390841 -249.549233 37.157528 99 73 55 
224.466538 -260.449567 127.479720 207 165 151 
224.401259 -260.668089 130.376790 221 179 158 
224.264446 -247.028481 22.975178 127 92 87 
223.646413 -252.079361 65.930604 110 83 81 
221.876289 -255.280631 95.316054 117 81 63 
226.727424 -254.238821 79.227617 121 97 92 
224.471414 -253.864030 80.547332 102 75 70 
223.315168 -245.605959 17.832126 96 54 43 
223.489808 -253.803137 83.032163 163 154 150 
224.615670 -259.011279 131.176052 88 30 3 
227.168354 -250.168338 61.624900 175 136 111 
223.097110 -244.458730 25.418023 92 68 63 
227.919385 -247.073733 37.924515 84 35 14 
220.215606 -240.535369 0.012344 118 102 100 
204.689658 -254.566519 135.860365 187 141 120 
218.290344 -257.063963 135.958433 181 95 57 
222.379846 -257.966411 136.788738 115 31 1 
222.379846 -257.966411 136.788738 115 31 1 
222.597923 -257.919194 138.354884 173 80 44 
206.031348 -253.959689 135.254519 95 48 17 
224.539800 -244.084565 29.269943 190 158 143 
224.539800 -244.084565 29.269943 190 158 143 
223.762557 -252.690070 100.414663 175 137 114 
226.104770 -256.813851 128.902041 91 30 2 
226.104770 -256.813851 128.902041 91 30 2 
225.582301 -251.748793 91.653005 109 87 86 
197.115683 -250.774939 133.904742 201 169 141 
225.420960 -252.928882 103.845660 115 83 60 
221.618585 -242.622045 34.754683 103 66 60 
223.851755 -245.063819 51.556764 111 77 54 
205.736912 -251.881672 134.310269 231 163 136 
219.856945 -252.498204 116.195769 171 149 120 
219.253056 -242.641250 43.724794 167 135 113 
225.688689 -255.298369 130.258805 167 111 77 
225.688689 -255.298369 130.258805 167 111 77 
220.689066 -243.766846 51.793647 125 91 66 
224.235721 -252.213127 116.069674 91 30 1 
220.630392 -245.996962 76.856364 181 155 155 
222.823347 -253.440147 130.751413 99 32 0 
223.234553 -243.008330 52.268798 164 132 106 
217.133066 -252.626022 135.176126 170 123 92 
222.385668 -243.273599 56.926940 163 133 109 
225.254150 -245.362951 68.732940 105 87 83 
222.409456 -243.985121 63.712667 170 153 148 
221.686060 -250.267249 112.061434 94 32 1 
222.036612 -252.178901 128.251329 177 116 86 
222.036612 -252.178901 128.251329 177 116 86 
222.200026 -242.636738 59.577177 168 136 115 
223.641402 -245.574357 79.834515 167 149 148 
223.424682 -250.721324 118.916872 92 39 7 
222.641141 -240.109924 42.437006 187 148 131 
224.445663 -252.017467 128.278773 79 28 1 
225.163822 -244.458807 72.967251 173 157 155 
222.789275 -243.941461 75.136464 165 154 150 
222.993993 -249.186118 115.918117 185 140 103 
222.993993 -249.186118 115.918117 185 140 103 
219.867482 -250.359243 135.722782 109 32 1 
224.350547 -246.041484 102.296398 168 120 76 
224.350547 -246.041484 102.296398 168 120 76 
214.552009 -247.036101 134.229102 93 15 0 
222.622437 -246.217911 115.575624 78 28 0 
222.622437 -246.217911 115.575624 78 28 0 
182.956149 -242.210971 159.515438 162 159 155 
219.677749 -245.883000 135.207058 180 131 91 
185.326875 -216.647155 10.502173 151 126 124 
207.630797 -214.750162 0.134572 39 25 23 
228.233159 -215.371891 6.357556 166 145 144 
200.968823 -205.898632 4.500243 164 142 139 
121.888871 -182.067657 4.672890 34 26 21 
304.579995 -218.522517 6.196765 44 29 30 
200.462088 -189.170895 2.637972 160 140 137 
221.722020 -195.128648 5.591527 37 16 15 
221.722020 -195.128648 5.591527 37 16 15 
338.796313 -220.381781 3.035779 44 29 30 
338.796313 -220.381781 3.035779 44 29 30 
221.604022 -188.863009 3.435782 164 143 140 
315.717806 -213.487745 3.910810 174 157 158 
283.036673 -204.821108 21.150280 169 149 146 
190.663991 -176.706546 5.268578 43 24 23 
333.088180 -213.145268 3.714233 174 153 152 
327.785113 -211.728019 5.751554 175 154 153 
193.812383 -174.863402 6.066689 183 158 156 
314.783302 -205.326645 2.456924 52 32 34 
229.079986 -180.257013 3.483695 36 26 21 
322.667982 -202.932612 1.791274 173 157 155 
337.731238 -204.918953 1.551838 44 33 30 
328.951198 -199.050505 2.320114 174 158 156 
18.590931 -103.684056 4.860458 143 127 119 
18.590931 -103.684056 4.860458 143 127 119 
333.536959 -195.888318 4.245096 178 155 154 
98.270824 -124.001932 6.855436 31 20 17 
98.270824 -124.001932 6.855436 31 20 17 
14.537456 -89.530224 1.857865 143 122 116 
329.989017 -185.140880 2.941521 173 153 152 
329.989017 -185.140880 2.941521 173 153 152 
126.197643 -123.120482 6.074494 32 21 18 
108.687907 -115.762015 4.483256 150 132 124 
108.687907 -115.762015 4.483256 150 132 124 
91.819119 -108.965305 3.626145 33 23 18 
96.722661 -104.546460 1.621508 26 15 12 
339.280552 -180.383941 2.628129 42 29 25 
122.294739 -101.291808 5.190170 154 132 129 
196.066643 -122.546560 6.494306 51 32 31 
84.725974 -81.494308 0.034612 30 20 15 
214.134395 -123.271201 6.792430 36 22 20 
104.831175 -85.310568 3.024178 31 23 18 
120.872009 -90.224467 3.337551 147 129 126 
120.872009 -90.224467 3.337551 147 129 126 
203.977099 -116.944387 8.539455 174 154 151 
210.882641 -114.406518 5.570442 41 26 22 
125.950061 -83.542266 3.106137 32 24 19 
233.210970 -120.521158 4.755448 34 23 20 
233.210970 -120.521158 4.755448 34 23 20 
211.851871 -112.266803 3.919881 38 20 17 
211.851871 -112.266803 3.919881 38 20 17 
216.930733 -109.541098 4.792152 39 19 16 
216.930733 -109.541098 4.792152 39 19 16 
213.847298 -109.909469 14.442821 173 151 148 
213.847298 -109.909469 14.442821 173 151 148 
223.728420 -100.258415 3.049434 38 16 15 
8.302535 -19.463994 5.091935 150 130 124 
8.302535 -19.463994 5.091935 150 130 124 
20.718841 -22.404127 3.971678 31 21 16 
232.428006 -98.717117 3.165383 35 23 20 
15.601298 -16.333835 5.434526 26 9 5 
15.601298 -16.333835 5.434526 26 9 5 
3.116271 -8.482856 6.141281 28 11 5 
228.594126 -90.242688 5.846932 165 143 140 
228.594126 -90.242688 5.846932 165 143 140 
14.333037 -9.228539 4.469704 146 127 121 
309.276208 -119.639207 8.201167 43 29 27 
200.178467 -77.610544 14.623897 185 164 158 
14.951386 -1.802260 8.699097 32 13 10 
234.903541 -83.123402 5.770151 35 26 18 
234.903541 -83.123402 5.770151 35 26 18 
324.554515 -115.873512 9.185049 167 148 142 
331.145796 -117.428154 9.698190 169 148 145 
343.360699 -121.574818 9.139038 41 30 27 
343.360699 -121.574818 9.139038 41 30 27 
338.225321 -116.029848 9.909739 36 25 20 
338.225321 -116.029848 9.909739 36 25 20 
105.230298 -22.870239 11.251863 151 129 126 
105.230298 -22.870239 11.251863 151 129 126 
328.476876 -106.860172 7.083271 42 25 22 
328.476876 -106.860172 7.083271 42 25 22 
325.415710 -102.913464 3.716046 47 29 26 
338.256887 -108.657438 7.932264 164 149 145 
128.314187 -22.942259 5.503544 29 21 16 
116.750358 -18.780881 7.156803 146 126 123 
318.742532 -96.575786 8.268966 167 146 140 
335.146349 -99.972512 5.878140 168 148 145 
309.588946 -88.298033 5.777047 164 142 139 
309.588946 -88.298033 5.777047 164 142 139 
127.373730 -12.820592 9.383764 155 129 129 
119.866371 -8.582804 8.725492 29 9 6 
203.141483 -25.913428 16.099297 47 28 27 
209.857894 -19.221921 16.437246 167 145 142 
209.857894 -19.221921 16.437246 167 145 142 
314.724310 -69.005239 39.771904 161 137 132 
223.369069 -16.888767 11.988941 164 142 139 
243.767081 -27.101520 17.265380 33 22 19 
206.165304 -11.102667 19.709195 45 26 25 
220.683026 -13.770164 15.306328 35 15 12 
220.683026 -13.770164 15.306328 35 15 12 
217.048637 -10.593396 15.405818 41 25 23 
211.397337 -0.458782 17.939488 167 145 139 
223.011904 -2.324241 12.958847 166 143 136 
315.923843 -23.242404 12.627240 34 24 19 
332.091297 -21.294038 12.588858 159 144 140 
332.091297 -21.294038 12.588858 159 144 140 
336.832518 -22.527304 15.714447 164 140 138 
318.618823 -12.189310 14.101007 159 137 134 
318.618823 -12.189310 14.101007 159 137 134 
347.870099 -23.808026 12.618238 36 26 21 
347.870099 -23.808026 12.618238 36 26 21 
341.220100 -17.040570 12.485090 40 22 19 
341.220100 -17.040570 12.485090 40 22 19 
331.508407 -11.847151 13.310847 160 141 135 
331.508407 -11.847151 13.310847 160 141 135 
331.508407 -11.847151 13.310847 160 141 135 
316.222940 -4.570710 18.175965 31 23 18 
345.343140 -12.079237 15.176682 159 142 136 
345.343140 -12.079237 15.176682 159 142 136 
335.754721 -5.301864 15.444637 39 23 15 
335.754721 -5.301864 15.444637 39 23 15 
14.872941 -398.098059 18.880289 153 138 134 
29.204028 -397.354952 14.731047 155 138 132 
19.866844 -394.817626 4.982352 155 138 132 
19.866844 -394.817626 4.982352 155 138 132 
11.903004 -391.993674 9.774928 158 144 137 
11.903004 -391.993674 9.774928 158 144 137 
18.319303 -391.516805 11.034653 33 20 16 
18.319303 -391.516805 11.034653 33 20 16 
9.055665 -389.130150 17.598322 41 27 26 
20.784206 -389.555685 10.868593 32 22 17 
31.977282 -388.204924 11.602572 32 23 20 
106.637292 -398.621489 8.192644 35 24 21 
106.637292 -398.621489 8.192644 35 24 21 
19.465995 -386.339638 11.941306 33 20 16 
107.053877 -397.078950 14.312035 35 24 21 
57.788549 -392.030131 4.560342 155 138 132 
57.788549 -392.030131 4.560342 155 138 132 
16.005040 -383.165844 13.311205 36 22 16 
16.005040 -383.165844 13.311205 36 22 16 
128.997437 -396.027622 11.554660 161 145 143 
128.997437 -396.027622 11.554660 161 145 143 
96.075518 -392.969757 0.085681 147 136 133 
11.511420 -380.220813 5.381716 148 138 133 
11.511420 -380.220813 5.381716 148 138 133 
126.146471 -393.044456 11.898781 38 24 22 
10.416685 -377.801673 4.792809 146 137 134 
21.182938 -377.666629 10.423901 160 150 146 
21.182938 -377.666629 10.423901 160 150 146 
6.318214 -374.851208 12.583209 30 21 18 
116.154276 -389.743338 11.892465 157 142 138 
116.154276 -389.743338 11.892465 157 142 138 
116.154276 -389.743338 11.892465 157 142 138 
114.354937 -387.362252 14.780623 150 139 136 
107.210569 -384.676262 6.440400 32 21 18 
107.210569 -384.676262 6.440400 32 21 18 
209.545490 -398.496594 3.718943 41 30 27 
200.591693 -396.038058 4.787549 155 141 139 
109.707262 -380.291692 3.899338 156 137 136 
9.429373 -362.603347 19.193613 158 140 134 
114.145567 -378.995872 10.864389 55 44 41 
101.039883 -376.831093 9.399406 35 24 21 
197.584291 -392.273020 0.941211 39 25 23 
229.240996 -395.770601 5.283857 45 31 29 
196.803044 -389.461326 3.292863 44 29 30 
98.518317 -372.282618 12.717548 33 23 23 
98.518317 -372.282618 12.717548 33 23 23 
209.686038 -389.656538 1.640033 171 153 149 
209.686038 -389.656538 1.640033 171 153 149 
126.137311 -375.255794 8.593216 36 25 22 
126.137311 -375.255794 8.593216 36 25 22 
207.040893 -379.490000 10.596654 157 138 137 
301.621111 -394.838273 0.152797 48 37 34 
197.497167 -372.579354 2.843542 46 30 28 
234.016941 -371.118829 5.430823 50 34 32 
234.016941 -371.118829 5.430823 50 34 32 
14.759699 -320.652927 23.032412 37 22 20 
163.875967 -348.090842 4.124597 165 150 146 
29.704638 -316.223363 9.967213 30 22 17 
9.020639 -308.494040 16.773946 35 21 19 
26.870545 -310.242584 10.491088 157 140 134 
26.870545 -310.242584 10.491088 157 140 134 
35.058887 -309.778396 21.008685 155 138 132 
1.902572 -301.690839 9.966582 156 138 135 
1.902572 -301.690839 9.966582 156 138 135 
14.778008 -298.968023 4.751839 157 140 134 
126.602009 -317.142395 10.012081 38 24 22 
22.690409 -291.906808 4.991026 33 25 20 
18.049280 -289.749347 10.144642 163 143 140 
18.049280 -289.749347 10.144642 163 143 140 
113.472927 -308.208110 6.735434 167 147 144 
98.884467 -301.438962 13.501690 36 25 22 
26.173404 -282.688310 13.497495 32 23 18 
26.173404 -282.688310 13.497495 32 23 18 
200.846132 -322.462938 11.361639 169 159 160 
6.861176 -277.520556 18.742327 29 19 16 
6.861176 -277.520556 18.742327 29 19 16 
206.369119 -323.556192 2.063315 171 156 152 
106.925551 -300.213901 9.051574 36 25 22 
134.561101 -300.659762 16.899830 39 25 23 
86.760076 -290.325189 0.700892 158 142 140 
201.442499 -316.458662 4.739712 32 25 22 
106.125979 -292.634455 4.098812 155 143 140 
145.617178 -297.386824 70.695085 156 137 131 
63.684972 -276.038253 48.098836 157 136 130 
63.684972 -276.038253 48.098836 157 136 130 
231.107313 -314.815672 7.152336 43 29 27 
100.910147 -282.395993 13.499556 34 23 20 
117.481136 -283.740107 13.335241 162 144 143 
117.481136 -283.740107 13.335241 162 144 143 
169.952049 -292.719672 80.278857 156 135 129 
212.971781 -307.802629 3.905745 164 150 148 
212.971781 -307.802629 3.905745 164 150 148 
180.488945 -291.403452 138.979493 128 124 100 
167.710761 -288.885635 125.589585 40 25 64 
171.680535 -295.694737 11.329581 144 135 139 
173.174390 -287.187422 131.236942 17 4 116 
181.474717 -289.247258 122.826976 75 35 18 
159.401907 -287.960287 36.372905 39 25 23 
175.113594 -287.435554 117.209926 96 51 29 
175.113594 -287.435554 117.209926 96 51 29 
178.972950 -286.710167 114.514523 155 137 119 
177.501434 -285.347291 131.536089 121 120 179 
177.501434 -285.347291 131.536089 121 120 179 
177.631963 -285.608195 120.117275 126 116 145 
173.615273 -283.381740 131.295635 17 6 97 
222.857673 -302.143025 8.589854 47 34 34 
166.261700 -284.233841 70.387377 102 67 36 
181.777322 -285.910780 106.982694 100 66 53 
164.672020 -284.994906 31.555566 160 147 146 
221.992296 -300.833498 6.037486 47 31 29 
221.992296 -300.833498 6.037486 47 31 29 
184.360639 -284.902682 132.252586 109 95 191 
179.884722 -284.835099 106.687241 175 132 117 
149.305374 -276.757696 108.642812 109 95 191 
149.305374 -276.757696 108.642812 109 95 191 
172.856194 -281.408741 131.905992 135 120 178 
183.844856 -285.166002 107.048605 146 118 105 
184.541974 -284.854346 113.542105 111 45 24 
193.860842 -286.001221 131.828459 19 1 113 
185.094540 -283.611149 133.512114 13 2 89 
190.479934 -284.962827 132.868740 12 2 116 
189.811745 -285.764386 107.648539 145 115 102 
206.329936 -289.662445 111.081609 91 48 31 
183.210101 -283.787935 106.944046 98 52 33 
187.774269 -284.890121 107.386768 162 133 117 
169.341049 -278.792926 131.686005 23 3 68 
128.747465 -269.163158 108.501083 77 85 90 
185.723560 -282.424998 134.897363 129 119 182 
188.896488 -283.076748 134.745081 16 8 89 
187.402709 -283.870887 100.342870 74 33 17 
168.831280 -277.102024 132.608744 140 135 140 
199.107302 -284.868001 134.875760 135 102 90 
174.591046 -278.242992 130.134046 9 1 85 
193.421351 -283.808997 108.872105 159 115 101 
187.125658 -282.564700 97.571696 80 41 25 
194.041257 -283.956864 98.865446 101 48 28 
191.922474 -281.850948 128.116535 137 68 0 
188.047414 -280.594781 131.442123 132 127 199 
172.560539 -275.975258 137.255741 79 83 89 
196.255105 -284.462909 80.658093 81 51 28 
186.278483 -283.190157 40.120127 71 79 80 
183.585045 -278.388097 130.204773 117 111 181 
187.337957 -278.977513 131.532177 24 17 82 
187.834814 -280.321928 97.497105 149 113 96 
187.834814 -280.321928 97.497105 149 113 96 
197.188045 -283.817769 72.000710 105 78 56 
200.633605 -283.844328 80.720732 95 64 45 
200.633605 -283.844328 80.720732 95 64 45 
202.041992 -283.026434 84.212713 148 129 106 
179.915698 -275.296196 128.288392 16 6 102 
207.287253 -284.364811 79.801973 152 123 103 
207.287253 -284.364811 79.801973 152 123 103 
204.904285 -283.180813 79.483186 79 48 26 
197.953532 -283.558287 11.258290 160 152 154 
209.536370 -283.014013 100.854267 108 55 31 
174.590505 -272.301158 132.388093 164 153 150 
206.650125 -283.062111 72.656060 110 89 68 
203.302344 -281.979961 76.094001 95 66 44 
194.120485 -277.103742 131.585730 147 100 85 
197.484615 -282.422007 1.962383 39 27 29 
211.757641 -282.085083 108.290086 161 121 110 
210.877885 -280.670149 129.701564 125 65 2 
199.356868 -279.520808 46.269244 50 68 89 
215.800204 -281.926258 103.399959 165 118 97 
202.605290 -277.302398 129.629391 176 109 38 
213.568665 -283.634141 2.376090 153 145 147 
180.609449 -270.089077 131.789836 111 101 101 
167.101714 -266.276733 133.021366 103 73 51 
198.724704 -274.825809 126.306648 129 64 0 
215.820548 -279.124526 127.859772 119 63 0 
210.063529 -280.229710 38.569007 69 74 79 
208.759619 -279.148839 29.292101 82 74 89 
204.543868 -277.166964 20.539667 125 120 121 
190.182936 -269.741215 135.742799 180 164 156 
213.666471 -278.601023 37.077316 102 129 157 
221.389233 -280.036504 47.968065 124 113 127 
179.883644 -265.035499 135.285086 133 103 80 
174.917544 -263.624491 134.842925 174 158 152 
208.559602 -276.467025 6.710471 139 123 118 
193.036031 -268.183445 134.256283 172 157 142 
161.273884 -259.445758 115.793427 148 107 40 
201.623056 -269.565984 133.589009 163 153 153 
215.430443 -276.006232 30.267271 71 65 91 
180.564415 -263.459103 135.055198 135 110 87 
213.095324 -275.407026 26.608815 56 50 74 
207.925474 -274.252365 1.923490 146 125 119 
221.110435 -276.794242 43.125310 135 135 135 
202.094630 -269.136724 130.929883 124 114 110 
212.152919 -271.947719 127.521439 144 93 32 
185.515525 -263.961041 144.543280 175 144 120 
215.351158 -272.791820 125.555303 147 92 11 
147.873592 -253.482263 108.564246 162 110 34 
147.873592 -253.482263 108.564246 162 110 34 
225.455036 -275.410374 88.121674 184 161 152 
227.288123 -276.158943 52.891638 174 155 134 
224.423958 -274.657957 80.515004 191 164 153 
220.732745 -273.172165 90.119192 120 75 29 
191.207267 -263.591449 140.489644 154 106 50 
172.748117 -258.283493 138.894656 98 83 65 
214.064002 -270.066634 135.445897 118 108 108 
214.064002 -270.066634 135.445897 118 108 108 
224.904344 -274.092691 74.962365 175 163 157 
221.017940 -274.446761 5.530886 143 125 122 
228.086039 -275.111436 40.041538 179 159 145 
223.980133 -272.190751 123.805734 150 108 49 
226.121479 -274.253934 52.754983 114 80 52 
220.220760 -271.615122 92.046779 178 135 92 
229.318799 -274.329550 86.171913 116 97 95 
229.595040 -274.972798 52.799318 110 79 61 
228.313446 -274.314605 63.665796 187 160 149 
227.426790 -273.552901 72.726954 124 103 97 
224.520188 -272.438742 83.947220 184 162 159 
217.928291 -270.069742 102.299044 168 144 114 
179.613415 -258.240817 137.287480 167 156 159 
229.484302 -273.443515 89.666645 124 99 96 
230.492824 -273.793366 80.895920 109 85 80 
230.492824 -273.793366 80.895920 109 85 80 
227.397145 -272.546496 74.969789 112 88 80 
222.975184 -270.569608 92.292589 123 75 41 
222.593774 -271.017308 50.298108 173 141 119 
230.225765 -272.550936 84.122494 119 94 87 
218.947851 -268.791253 101.429266 113 85 58 
227.306628 -271.945821 57.339421 123 93 71 
227.306628 -271.945821 57.339421 123 93 71 
232.994273 -274.186432 11.153259 151 141 143 
227.371202 -271.863249 34.691964 114 92 88 
227.242920 -271.292140 44.724661 160 145 114 
166.109723 -251.898438 128.148478 120 111 113 
224.179256 -270.849271 9.590761 157 150 156 
223.083054 -269.556420 61.504331 193 163 157 
230.494248 -271.985960 42.737280 119 31 0 
221.596950 -269.717276 20.452665 106 89 90 
230.078055 -271.192910 76.410430 188 161 150 
226.498238 -270.053614 61.555161 89 61 49 
222.616668 -268.497851 69.099738 160 133 122 
216.070323 -266.068601 87.992134 117 84 53 
165.192285 -250.430696 123.707490 137 102 67 
224.997776 -269.382738 32.664476 113 84 80 
226.936563 -268.498120 104.784243 170 151 132 
167.733968 -250.656333 127.193982 177 160 154 
221.664723 -266.476975 130.413907 178 171 172 
221.664723 -266.476975 130.413907 178 171 172 
223.123321 -268.441818 24.921040 115 91 86 
217.645243 -265.441700 103.606343 174 162 158 
219.784181 -266.195885 90.359586 128 88 63 
196.202406 -258.545552 131.673917 92 31 0 
196.202406 -258.545552 131.673917 92 31 0 
229.682731 -269.908057 8.961831 97 80 83 
238.085380 -271.623645 43.705207 164 138 134 
224.874840 -267.035191 70.496519 175 147 139 
227.700098 -267.438665 101.646736 136 92 72 
221.759959 -265.629782 84.221964 118 90 85 
234.890775 -270.022596 36.599198 113 86 82 
221.077714 -265.976880 30.896153 181 134 120 
226.140392 -266.139423 117.056411 159 156 163 
222.752207 -265.528968 72.161407 103 82 74 
228.526241 -267.543202 19.007639 179 155 150 
174.169636 -249.851147 132.571044 57 38 27 
232.144598 -268.325263 10.445304 173 157 155 
220.248248 -263.876140 88.296434 199 163 153 
173.945485 -249.583731 130.327841 170 130 98 
223.544057 -265.256126 51.993469 128 93 66 
223.159530 -264.806505 75.777076 113 81 73 
227.737656 -265.373182 101.217914 123 86 65 
225.202813 -264.681657 87.434793 117 92 85 
227.390186 -265.974340 22.403383 113 66 61 
220.849329 -263.073989 91.932042 119 82 62 
222.753738 -264.383390 19.399847 88 50 45 
216.757531 -261.970555 72.169405 180 148 141 
216.757531 -261.970555 72.169405 180 148 141 
226.788539 -265.395790 20.385099 61 14 11 
228.158748 -265.346958 28.889918 166 144 141 
219.746724 -262.505823 25.622781 110 85 83 
219.985140 -261.512166 131.956562 164 115 47 
222.630246 -262.974019 59.082796 114 86 75 
224.964982 -264.189110 4.592806 142 102 86 
224.964982 -264.189110 4.592806 142 102 86 
214.628783 -260.082505 99.572933 113 89 80 
230.782453 -265.432207 40.530214 194 150 137 
204.145265 -256.577029 132.381569 217 176 154 
204.145265 -256.577029 132.381569 217 176 154 
198.438280 -254.826688 130.984964 70 16 7 
221.629580 -261.897644 74.696041 110 75 65 
231.081778 -264.712971 72.277662 177 148 137 
230.146113 -264.243426 55.466018 107 73 45 
230.146113 -264.243426 55.466018 107 73 45 
222.251648 -262.155091 16.647155 200 162 154 
214.973230 -259.405159 74.525361 182 159 152 
205.283035 -255.967998 134.104228 74 17 5 
215.530813 -259.524780 71.556872 177 152 145 
225.706064 -262.671069 56.302975 175 137 115 
231.651090 -263.802127 100.423553 162 126 108 
225.500818 -262.548897 16.761348 181 157 152 
194.729867 -252.330318 129.555293 198 165 148 
232.395723 -264.044711 64.246021 114 70 50 
222.574972 -260.621541 75.980748 96 56 50 
222.574972 -260.621541 75.980748 96 56 50 
225.613036 -261.696625 30.262215 166 143 136 
225.613036 -261.696625 30.262215 166 143 136 
207.359246 -255.259454 132.956478 94 23 0 
222.935301 -259.989625 123.602488 99 61 38 
221.949727 -259.770160 107.274410 173 161 152 
222.615002 -259.399964 127.306313 213 172 150 
224.164272 -259.936249 112.152967 118 93 62 
223.900425 -259.804193 107.194435 111 82 69 
217.148522 -257.702589 96.227487 189 162 146 
311.538467 -286.896648 5.566538 51 35 33 
311.538467 -286.896648 5.566538 51 35 33 
219.935895 -258.824618 34.779643 107 42 12 
219.935895 -258.824618 34.779643 107 42 12 
222.109097 -258.959832 124.086932 209 170 156 
212.855684 -256.316975 47.324581 121 79 60 
212.855684 -256.316975 47.324581 121 79 60 
223.416770 -259.485573 49.875177 123 89 61 
218.757266 -258.147714 10.972471 187 157 151 
218.757266 -258.147714 10.972471 187 157 151 
205.810215 -253.474418 134.954293 189 141 120 
221.547500 -258.412776 73.742523 186 156 152 
301.513013 -282.722802 2.105676 181 165 163 
223.893327 -258.864098 31.990053 175 145 139 
223.727159 -258.730426 27.249830 125 99 94 
225.859796 -259.379583 7.536873 185 150 138 
225.859796 -259.379583 7.536873 185 150 138 
220.762105 -257.276119 126.604230 89 31 4 
225.759795 -259.010078 62.866817 106 76 68 
219.768796 -256.962378 97.388802 120 91 75 
223.740958 -258.185615 77.571435 123 97 92 
223.740958 -258.185615 77.571435 123 97 92 
198.544871 -250.248128 131.252303 71 18 3 
221.856776 -257.267759 134.645356 111 30 0 
221.856776 -257.267759 134.645356 111 30 0 
225.975098 -258.956099 16.340094 106 72 60 
199.705612 -250.354182 133.664059 205 166 139 
225.871007 -258.568040 10.137619 112 71 55 
225.226830 -258.032204 64.890638 125 93 87 
221.795780 -256.982623 60.711532 189 159 151 
225.892236 -258.028550 67.667647 121 89 81 
220.859136 -256.386911 88.423704 118 90 82 
191.445189 -246.949877 128.987919 76 26 2 
220.010285 -255.741058 61.321549 191 159 151 
153.958524 -235.075111 112.673912 29 15 13 
224.799226 -256.855665 104.859604 122 88 73 
211.803203 -252.785146 129.790273 101 38 4 
206.549570 -251.125761 133.007792 220 154 125 
221.633177 -255.923093 39.088316 80 23 2 
223.125581 -256.212459 87.235112 114 89 87 
220.777361 -255.441070 75.367491 108 84 79 
220.777361 -255.441070 75.367491 108 84 79 
208.589391 -251.188725 132.421419 193 140 110 
223.284446 -255.824789 27.351597 127 103 102 
225.694974 -256.372841 6.857430 125 100 92 
225.074695 -255.895188 108.615201 122 84 63 
225.066751 -255.425885 28.009941 165 143 140 
215.350314 -252.237157 131.161828 211 158 126 
221.881057 -254.213569 83.207235 104 82 79 
221.881057 -254.213569 83.207235 104 82 79 
223.124763 -254.558681 13.768788 107 59 44 
223.124763 -254.558681 13.768788 107 59 44 
224.393521 -254.719159 113.522096 163 151 140 
224.393521 -254.719159 113.522096 163 151 140 
222.971392 -254.194177 35.116569 175 124 108 
221.322692 -253.543093 39.100893 83 22 2 
224.035436 -254.357046 28.516106 117 94 93 
226.947929 -255.252821 12.068506 112 58 35 
180.214854 -240.793552 155.451581 167 162 159 
221.000552 -253.427706 89.271163 107 91 89 
221.000552 -253.427706 89.271163 107 91 89 
224.384793 -254.466138 104.898037 111 80 61 
222.799885 -253.891579 55.272244 171 135 107 
210.962793 -250.101279 129.015714 182 134 102 
219.907680 -252.833211 92.427248 123 83 64 
225.661929 -254.577420 128.544146 172 111 77 
210.494576 -248.993735 22.134047 95 83 73 
221.927379 -252.432441 38.108288 174 110 82 
225.298878 -253.466179 59.527657 92 57 36 
218.080779 -251.278028 125.482801 88 28 0 
218.128421 -251.006240 43.660809 116 77 50 
214.150983 -249.689698 32.775603 91 25 0 
212.933409 -249.322817 109.384597 164 146 121 
212.933409 -249.322817 109.384597 164 146 121 
219.709368 -251.240529 46.632040 177 138 111 
209.694599 -248.013543 23.101332 193 140 129 
220.103283 -251.257623 22.279840 156 137 137 
224.689793 -252.663092 65.370150 87 56 52 
217.943997 -250.560936 110.265074 174 147 131 
218.613664 -250.605206 82.541647 185 155 148 
219.079856 -250.528455 47.495871 106 67 39 
224.533475 -252.177509 53.954635 173 138 107 
210.467341 -247.783882 118.063598 176 120 89 
231.324959 -254.247545 130.163252 175 118 84 
227.848927 -252.932923 85.408912 170 155 153 
227.848927 -252.932923 85.408912 170 155 153 
219.684941 -250.451222 124.848164 176 120 89 
219.684941 -250.451222 124.848164 176 120 89 
225.328956 -252.035891 89.764818 99 75 71 
221.108977 -250.587936 94.953729 116 75 47 
217.493135 -249.244240 70.403346 120 96 91 
215.820287 -248.824765 110.686561 178 143 119 
223.875390 -250.930329 52.181110 122 84 57 
218.740628 -249.414239 133.176641 108 27 0 
222.347081 -250.305024 84.427349 89 61 55 
221.360035 -249.718213 26.673608 106 84 81 
219.312488 -249.282419 97.460795 120 88 60 
218.415230 -248.567987 27.039996 106 88 85 
228.088722 -251.699740 62.526223 115 79 53 
226.305661 -250.764615 32.997106 155 136 134 
129.221496 -220.332620 85.091136 22 15 10 
227.974880 -251.469050 99.892516 130 90 60 
